0,0,0,0,0,0,0,0,0,0,0,0,0,0,0,0,0,0,0,0,0.374,0.373,0.374,0.374,0.374,0.375,0.375,0,0,0,0,0,0,0,0,0.387,0.387,0.388,0.388,0.388,0.389,0.389,0.389,0.389,0.389,0.389,0.389,0.389,0.39,0.39,0.39,0.39,0.39,0.39,0,0,0,0,0,0,0,0,0,0,0,0,0,0,0,0,0,0,0,0,0,0,0,0,0,0,0,0,0,0,0,0,0.268,0.268,0.268,0.268,0.268,0.268,0.269,0.269,0.269,0.269,0.269,0.269,0.269,0.269,0.269,0,0,0,0,0,0,0,0,0,0,0,0,0.452,0.452,0.452,0.452,0.451,0.452,0.451,0.451,0.451,0.45,0.45,0.45,0.45,0.449,0.449,0.448,0.448,0.448,0.448,0.447,0.447,0.447,0.447,0.448,0.448,0.448,0.448,0.448,0.448,0.449,0.449,0.448,0.447,0.446,0.446,0.445,0.444,0.444,0.442,0.442,0.442,0.442,0,0,0.523,0.523,0.522,0.521,0.52,0.518,0.518,0.517,0,0.515,0.515,0.516,0.518,0.52,0.521,0.523,0.527,0.526,0.529,0.532,0.532,0.531,0.532,0.532,0.532,0.534,0.534,0.534,0.535,0.536,0.537,0.537,0.538,0.539,0.54,0.54,0.541,0.542,0.542,0.543,0.544,0.545,0.545,0.546,0.547,0.548,0.549,0.549,0.55,0.552,0.553,0.554,0.557,0.559,0.561,0.563,0.565,0.568,0.571,0.575,0.579,0.582,0.585,0.588,0.591,0.592,0.595,0.597,0.598,0.599,0.599,0.6,0.6,0.601,0.601,0.601,0.601,0.6,0.6,0.6,0.599,0.599,0.599,0.599,0.598,0.598,0.598,0.598,0.598,0.599,0.6,0.601,0.602,0.602,0.603,0.603,0.604,0.604,0.604,0.604,0.603,0.603,0.603,0.603,0.603,0.602,0.602,0.602,0.602,0.602,0.601,0.601,0.6,0.6,0.6,0.598,0.598,0.598,0.598,0.598,0.598,0.598,0.598,0.6,0.6,0.6,0.602,0.603,0.604,0.605,0.606,0.606,0.608,0.609,0.609,0.609,0.607,0.607,0.607,0.607,0.606,0.605,0.604,0.601,0.599,0.597,0.594,0.592,0.59,0.589,0.588,0.587,0.587,0.587,0.587,0.587,0.588,0.589,0.591,0.592,0.593,0.594,0.595,0.596,0.597,0.596,0.596,0.596,0.596,0.596,0.596,0.596,0.596,0.596,0.597,0.597,0.597,0.597,0.598,0.599,0.6,0.601,0.602,0.603,0.604,0.607,0.61,0.613,0.616,0.619,0.623,0.626,0.629,0.632,0.632,0.63,0,0.628,0.627,0.627,0.626,0.626,0.625,0.625,0.626,0.627,0.627,0.627,0.627,0.626,0.626,0.626,0,0,0.62,0.613,0.606,0.6,0.595,0.591,0.587,0.584,0.581,0.58,0.579,0.579,0.58,0.58,0.58,0.581,0.581,0.582,0.583,0.584,0.586,0.587,0.588,0.589,0.59,0.59,0.591,0.591,0.592,0.593,0.593,0.594,0.595,0.595,0.594,0.594,0.594,0.594,0.595,0.595,0.594,0.594,0.594,0,0.595,0,0,0,0,0,0,0.587,0.584,0.582,0.58,0.578,0.578,0.578,0.578,0.578,0.579,0.579,0,0,0,0,0,0,0,0,0,0,0.589,0.588,0.586,0.583,0.58,0,0,0,0,0,0,0,0,0,0,0,0,0,0,0,0,0,0,0,0,0,0,0,0,0,0.636,0.637,0.637,0.638,0.639,0.638,0.638,0.638,0,0.638,0.639,0.638,0.637,0.636,0,0,0,0,0,0,0,0,0,0,0,0,0,0,0,0,0,0,0,0,0,0,0,0,0,0,0,0,0,0,0,0,0.57,0.571,0.571,0,0.572,0.572,0.572,0,0,0.573,0,0,0,0,0,0,0,0,0,0,0,0,0,0,0,0,0,0,0,0,0,0.534,0.534,0.533,0.532,0.532,0.531,0.53,0.53,0.529,0.529,0.528,0,0,0,0,0,0,0,0,0,0,0,0,0,0,0,0,0,0,0,0,0,0,0,0,0.514,0.514,0.514,0.513,0.512,0.511,0.51,0.509,0.508,0.507,0.506,0.505,0.505,0.504,0.503,0.502,0.501,0.5,0.499,0.498,0,0,0,0,0,0,0,0,0,0,0,0,0,0,0,0,0,0,0,0,0,0,0,0,0,0.448,0.449,0.449,0.449,0.449,0.449,0.449,0.449,0.449,0.449,0.449,0.448,0.448,0.448,0.448,0.447,0.447,0.446,0.445,0.444,0.444,0.442,0.442,0.44,0.439,0.438,0.437,0.436,0.435,0.435,0.434,0.433,0.432,0.432,0.431,0.431,0.43,0.43,0.429,0.429,0.429,0.429,0.428,0.428,0.428,0.427,0.427,0.426
0,0,0,0,0,0,0,0,0,0,0,0,0,0,0,0,0,0,0,0,0.373,0.373,0.373,0.373,0.373,0.373,0,0,0,0,0,0,0,0,0,0,0.387,0.388,0.388,0.388,0.389,0.389,0.389,0.389,0.389,0.389,0.389,0.389,0.39,0.39,0.39,0.39,0.39,0.391,0.39,0.39,0.391,0.39,0.39,0,0,0,0,0,0,0,0,0,0,0,0,0,0,0,0,0,0,0,0,0,0,0,0,0,0,0,0.268,0.268,0.268,0.268,0.268,0.268,0.268,0.268,0.269,0.269,0.269,0.269,0.269,0.269,0.269,0,0,0,0,0,0,0,0,0,0,0,0,0.452,0.452,0.451,0.451,0.451,0.451,0.451,0.451,0.451,0.451,0.451,0.451,0.45,0.45,0.449,0.449,0.449,0.448,0.448,0.447,0.447,0.447,0.448,0.448,0.448,0.448,0.449,0.449,0.449,0.449,0.449,0.449,0.448,0.448,0.447,0.446,0.446,0.445,0.444,0.443,0.442,0.442,0.442,0,0,0.521,0.52,0.518,0.516,0,0,0,0,0,0.509,0.51,0.511,0,0,0,0,0.522,0.525,0.528,0.528,0.528,0.529,0.529,0.529,0.531,0.532,0.532,0.532,0.533,0.534,0.534,0.535,0.536,0.537,0.537,0.538,0.539,0.539,0.54,0.542,0.543,0.543,0.544,0.545,0.546,0,0.549,0.549,0.551,0.552,0.555,0.557,0.559,0.561,0.563,0.566,0.568,0.571,0.575,0.577,0.58,0.583,0.586,0.588,0.589,0.591,0.592,0.592,0.593,0.593,0.594,0.594,0.595,0.596,0.596,0.597,0.596,0.596,0.596,0.596,0.596,0.596,0.596,0.595,0.595,0.595,0.595,0.596,0.596,0.597,0.598,0.598,0.6,0.6,0.6,0.601,0.601,0.601,0.601,0.601,0.6,0.6,0.6,0.6,0.6,0.6,0.6,0.6,0.599,0.599,0.598,0.598,0.597,0.597,0.596,0.596,0.595,0.595,0.595,0.595,0.595,0.595,0.595,0.596,0.596,0.597,0.597,0.598,0.598,0.598,0.598,0.598,0.598,0.6,0.598,0.598,0.598,0.598,0.6,0.6,0.6,0.599,0.597,0.597,0.596,0.594,0.591,0.589,0.588,0.586,0.586,0.585,0.584,0.584,0.584,0.585,0.586,0.587,0.588,0.589,0.59,0.591,0.591,0.592,0.592,0.591,0.591,0.591,0.591,0.591,0.591,0.591,0.591,0.591,0.591,0.591,0.592,0.592,0.593,0.593,0.594,0.595,0.597,0.6,0.602,0.605,0.608,0.612,0.616,0.619,0,0.626,0.63,0.63,0.628,0,0,0.625,0.624,0.623,0,0.622,0.622,0,0.626,0.625,0.625,0,0,0,0,0,0,0,0,0.599,0.593,0,0.582,0.581,0.579,0.579,0.578,0.579,0.579,0.579,0.579,0.579,0.579,0.58,0.58,0.581,0.582,0.583,0.584,0.584,0.585,0.586,0.586,0.586,0.586,0.587,0.587,0.588,0.588,0.589,0.589,0.589,0.589,0.588,0.589,0.589,0.589,0.589,0.589,0.589,0.59,0.59,0.59,0,0.587,0.586,0.584,0.582,0.58,0.579,0.577,0.575,0.574,0.574,0.575,0.575,0.575,0,0.575,0,0,0,0,0,0,0.583,0,0,0,0,0.58,0,0,0,0,0,0,0,0,0,0,0,0,0,0,0,0,0,0,0,0,0,0,0,0,0,0,0,0,0.638,0.638,0.639,0.64,0.64,0.64,0.639,0.639,0.64,0,0.641,0.64,0.639,0.638,0,0,0,0,0,0,0,0,0,0,0,0,0,0,0,0,0,0,0,0,0,0,0,0,0,0,0,0,0,0,0,0,0,0,0,0,0,0,0,0,0,0,0,0,0,0,0,0,0,0,0,0,0,0,0,0,0,0,0,0,0,0,0,0,0,0,0,0,0,0,0,0,0,0,0,0,0,0,0,0,0,0,0,0,0,0,0,0,0,0,0,0,0,0,0,0,0,0,0,0,0.514,0.513,0,0,0,0.509,0.508,0.507,0.507,0.506,0.505,0.505,0.504,0.503,0,0,0,0,0,0,0,0,0,0,0,0,0,0,0,0,0,0,0,0,0,0,0,0,0,0,0,0,0,0,0,0,0.449,0.449,0.449,0.449,0.449,0.449,0.449,0.448,0.448,0.448,0.447,0.447,0.447,0.446,0.445,0.444,0.443,0.442,0.44,0.439,0.438,0.437,0.436,0.435,0.435,0.434,0.433,0.433,0.432,0.431,0.431,0.43,0.429,0.429,0.429,0.428,0.428,0.428,0.428,0.427,0.427,0.426,0.425,0,0
0,0,0,0,0,0,0,0,0,0,0,0,0,0,0,0,0,0,0,0,0.372,0.372,0.372,0.372,0.372,0.372,0.372,0,0,0,0,0,0,0,0,0,0.387,0.388,0.389,0.389,0.389,0.389,0.389,0.389,0.389,0.389,0.389,0.39,0.39,0.39,0.39,0.39,0.39,0.39,0.391,0.391,0.39,0.39,0.39,0.39,0,0,0,0,0,0,0,0,0,0,0,0,0,0,0,0,0,0,0,0,0,0,0,0,0,0,0.268,0.268,0.268,0.268,0.268,0.268,0.268,0.268,0.268,0.268,0.269,0.269,0.269,0.269,0.268,0,0,0,0,0,0,0,0,0,0,0,0,0.451,0.451,0.451,0.451,0.45,0.451,0.45,0.45,0.45,0.451,0.451,0.45,0.45,0.45,0.45,0.449,0.449,0,0.448,0.447,0.447,0.447,0.448,0.448,0.448,0.448,0.448,0.448,0.449,0.45,0.45,0.45,0.449,0.448,0.448,0.447,0.446,0.445,0.444,0.443,0.443,0.443,0.444,0.446,0,0,0,0,0,0.502,0,0.503,0.504,0.503,0,0,0.504,0.503,0.498,0,0,0.518,0.521,0.524,0.525,0.525,0.525,0.526,0.527,0.528,0.529,0.529,0.53,0.53,0.531,0.531,0.532,0.533,0.534,0.534,0.535,0.536,0.537,0.538,0.539,0.54,0.541,0.542,0.544,0.545,0,0.548,0.55,0.551,0.552,0.555,0.557,0.559,0.561,0.563,0.566,0.568,0.571,0.574,0.576,0.578,0.58,0.582,0.583,0.584,0.585,0.585,0.586,0.586,0.586,0.587,0.588,0.589,0.59,0.592,0.593,0.593,0.593,0.593,0.593,0.593,0.593,0.593,0.593,0.593,0.593,0.593,0.594,0.594,0.595,0.595,0.596,0.596,0.597,0.597,0.597,0.597,0.598,0.597,0.597,0.597,0.597,0.596,0.596,0.596,0.596,0.596,0.596,0.596,0.595,0.595,0.594,0.593,0.593,0.592,0.591,0.59,0.59,0.59,0.59,0.59,0.59,0.59,0.59,0.59,0.59,0.59,0.59,0.59,0.59,0.589,0.589,0.589,0.589,0.589,0.588,0.588,0.589,0.591,0.592,0.593,0.593,0,0.594,0.594,0.593,0.59,0.588,0.586,0.585,0.584,0.583,0.582,0.582,0.582,0.582,0.583,0.584,0.584,0.585,0.586,0.587,0.587,0.587,0.587,0.587,0.587,0.587,0.586,0.586,0.586,0.586,0.586,0.586,0.586,0.586,0.586,0.586,0.587,0.588,0.588,0.59,0.591,0.593,0.595,0.599,0.602,0.605,0.61,0.615,0,0,0,0,0,0,0,0,0.621,0.62,0,0,0,0,0,0,0,0,0,0,0,0,0,0,0,0.585,0.584,0,0.583,0.579,0.578,0.577,0.578,0.578,0.578,0.578,0.578,0.578,0.578,0.578,0.578,0.579,0.579,0.58,0.581,0.581,0.581,0.581,0.582,0.582,0.582,0.582,0.582,0.582,0.583,0.583,0.584,0.584,0.584,0.584,0.583,0.584,0.584,0.584,0.584,0.584,0.584,0.584,0.584,0.583,0,0.58,0.578,0.576,0.575,0.574,0.573,0.572,0.571,0.571,0.571,0.571,0.572,0,0,0,0,0,0,0,0,0,0,0,0,0,0,0.573,0.572,0.571,0,0,0,0,0,0,0,0,0,0,0,0,0,0,0,0,0,0,0,0,0,0,0,0,0,0,0,0.64,0.64,0.641,0.64,0.64,0.64,0.641,0,0,0,0,0,0,0,0,0,0,0,0,0,0,0,0,0,0,0,0,0,0,0,0,0,0,0,0,0,0,0,0,0,0,0,0,0,0,0,0,0,0,0,0,0,0,0,0,0,0,0,0,0,0,0,0,0,0,0,0,0,0,0,0,0,0,0,0,0,0,0,0,0,0,0,0,0,0,0,0,0,0,0,0,0,0,0,0,0,0,0,0,0,0,0,0,0,0,0,0,0,0,0,0,0,0,0,0,0,0,0,0,0,0,0,0,0,0,0,0,0,0,0,0,0,0,0,0,0,0,0,0,0,0,0,0,0,0,0,0,0,0,0,0,0,0,0,0,0,0.449,0.449,0.449,0.449,0.449,0.449,0.448,0.448,0.448,0.448,0.448,0.447,0.447,0.446,0.446,0.446,0.444,0.443,0.442,0.44,0.439,0.438,0.437,0.435,0.434,0.434,0.433,0.433,0.432,0.432,0.431,0.43,0.43,0.429,0.428,0.428,0.427,0.427,0.427,0.427,0.426,0.426,0.426,0.425,0.424,0.423,0
0,0,0,0,0,0,0,0,0,0,0,0,0,0,0,0,0,0,0,0,0.372,0.372,0.372,0.371,0.371,0.371,0.371,0,0,0.37,0.37,0.372,0.375,0,0,0.383,0.385,0.387,0.388,0.389,0.389,0.389,0.389,0.389,0.389,0.389,0.389,0.39,0.39,0.39,0.39,0.39,0.39,0.39,0.391,0.391,0.391,0.39,0.391,0.39,0,0,0,0,0,0,0,0,0,0,0,0,0,0,0,0,0,0,0,0,0,0,0,0,0,0,0.268,0.268,0.268,0.268,0.268,0.268,0.268,0.268,0.268,0.268,0.268,0.268,0.268,0.268,0.267,0,0,0,0,0,0,0,0,0,0,0,0,0.45,0.45,0.45,0.45,0.45,0.45,0.45,0.45,0.449,0.449,0.45,0.449,0.45,0.449,0.449,0,0,0,0,0.446,0.446,0.446,0.447,0.447,0.447,0.447,0.448,0.448,0.448,0.449,0.45,0.449,0.449,0.449,0.448,0.448,0.447,0.446,0.445,0.444,0.445,0.446,0.446,0.448,0,0,0,0,0.488,0.49,0.491,0.492,0.493,0.494,0.495,0.495,0.496,0.493,0.498,0,0,0.513,0.517,0.521,0.522,0.522,0.523,0.523,0.524,0.525,0.526,0.526,0.527,0.527,0.528,0.528,0.529,0.53,0.53,0.531,0.532,0.533,0.534,0.534,0.536,0.537,0.538,0.54,0.542,0.544,0.546,0.548,0.549,0.55,0.552,0.555,0.557,0.559,0.561,0.563,0.565,0.567,0.57,0.572,0.574,0.575,0.576,0.577,0.578,0.578,0.578,0.578,0.578,0.578,0.579,0.58,0.582,0.583,0.585,0.587,0.589,0.59,0.59,0.59,0.59,0.59,0.59,0.591,0.591,0.591,0.591,0.591,0.592,0.592,0.592,0.592,0.593,0.593,0.593,0.593,0.593,0.593,0.594,0.594,0.593,0.592,0.592,0.592,0.591,0.591,0.59,0.589,0.589,0.589,0.589,0.588,0.588,0.587,0.587,0.586,0.586,0.585,0.585,0.585,0.585,0.584,0.584,0.584,0.584,0.584,0.583,0.583,0.583,0.582,0.582,0.581,0.58,0.58,0.58,0,0,0,0.579,0,0,0,0,0.588,0.59,0.591,0.592,0.59,0.588,0.586,0.584,0.583,0.581,0.58,0.579,0.579,0.579,0.58,0.58,0.581,0.581,0.582,0.583,0.583,0.583,0.583,0.583,0.582,0.582,0.582,0.582,0.582,0.582,0.581,0.581,0.581,0.582,0.581,0.582,0.582,0.583,0.583,0.585,0.587,0.589,0.59,0.594,0.596,0.6,0,0,0,0,0,0,0,0,0,0,0,0,0,0,0,0,0,0,0,0,0,0,0,0,0,0,0,0,0,0,0.577,0.576,0.576,0.577,0.577,0.578,0.578,0.578,0.578,0.577,0.576,0.576,0.576,0.576,0.577,0.576,0.577,0.577,0.577,0.577,0.578,0.577,0.578,0.578,0.578,0.578,0.578,0.578,0.578,0,0,0,0.578,0.579,0.579,0.579,0.579,0.579,0.579,0.578,0.578,0.577,0.575,0.574,0.573,0.572,0.571,0.57,0.57,0.569,0.569,0.568,0.568,0.568,0.568,0,0,0,0.568,0.569,0,0,0,0,0,0,0,0,0,0.569,0,0,0,0,0,0,0,0,0,0,0,0,0,0,0,0,0,0,0,0,0,0,0,0,0,0,0,0,0,0,0,0,0.641,0.641,0,0,0,0,0,0,0,0,0,0,0,0,0,0,0,0,0,0,0,0,0,0,0,0,0,0,0,0,0,0,0,0,0,0,0,0,0,0,0,0,0,0,0,0,0,0,0,0,0,0,0,0,0,0,0,0,0,0,0,0,0,0,0,0,0,0,0,0,0,0,0,0,0,0,0,0,0,0,0,0,0,0,0,0,0,0,0,0,0,0,0,0,0,0,0,0,0,0,0,0,0,0,0,0,0,0,0,0,0,0,0,0,0,0,0,0,0,0,0,0,0,0,0,0,0,0,0,0,0,0,0,0,0,0,0,0,0,0,0,0,0,0,0,0,0,0,0,0,0,0,0,0.448,0.448,0.448,0.448,0.448,0.448,0.448,0.448,0.448,0.447,0.447,0.447,0.446,0.446,0.445,0.444,0.443,0.442,0.44,0.439,0.437,0.436,0.435,0.434,0.433,0.432,0.432,0.431,0.431,0.431,0.43,0.429,0.429,0.428,0.428,0.427,0.426,0.426,0.426,0.425,0.425,0.425,0.424,0.423,0.422,0.421,0.42
0,0,0,0,0,0,0,0,0,0,0,0,0,0,0,0,0,0,0,0,0,0.371,0.371,0.371,0.371,0.371,0.37,0,0,0.37,0.37,0.371,0.374,0,0,0.382,0.384,0.386,0.387,0.388,0.389,0.389,0.389,0.389,0.389,0.389,0.39,0.39,0.39,0.39,0.39,0.39,0.391,0.391,0.391,0.39,0.391,0.391,0.391,0.39,0,0,0,0,0,0,0,0,0,0,0,0,0,0,0,0,0,0,0,0,0,0,0,0,0,0,0.268,0.268,0.268,0.268,0.268,0.268,0.268,0.268,0.268,0.268,0.268,0.268,0.268,0.267,0.267,0,0,0,0,0,0,0,0,0,0,0,0,0,0.449,0.449,0.449,0.449,0.448,0.448,0.448,0.448,0.448,0.448,0.448,0.448,0.448,0,0,0,0,0,0,0.446,0.446,0.446,0.447,0.447,0.447,0.447,0.447,0.448,0.448,0.449,0.449,0.449,0.448,0.448,0.448,0.448,0.447,0.446,0.446,0.446,0.447,0.448,0.45,0,0,0,0,0,0.478,0.48,0.482,0.484,0.485,0.485,0.487,0.488,0.492,0.498,0,0,0.51,0.514,0.518,0.52,0.52,0.521,0.521,0.522,0.523,0.523,0.524,0.525,0.525,0.525,0.525,0.526,0.527,0.527,0.528,0.528,0.529,0.53,0.531,0.533,0.535,0.536,0.538,0.54,0.542,0.545,0.547,0.548,0.55,0.552,0.554,0.556,0.558,0.56,0.561,0.563,0.566,0.567,0.569,0.57,0.571,0.572,0.573,0.573,0.573,0.572,0.571,0.57,0.57,0.571,0.573,0,0.576,0.579,0.582,0.584,0.586,0.587,0.587,0.588,0.588,0.588,0.588,0.588,0.588,0.588,0.587,0.588,0.587,0.587,0.587,0.587,0.587,0.587,0.587,0.586,0.586,0.587,0.586,0.586,0.585,0.585,0.584,0.584,0.583,0.582,0.582,0.582,0.582,0.582,0.581,0.581,0.581,0.581,0.581,0.58,0.58,0.579,0.579,0.579,0.579,0.579,0.578,0.578,0.577,0.577,0.576,0.576,0.575,0.574,0.573,0.572,0,0.572,0.57,0.569,0.568,0.569,0.571,0.574,0,0,0.583,0.585,0.587,0.589,0.588,0.587,0.585,0.583,0.581,0.579,0.578,0.577,0.576,0.576,0.577,0.577,0.577,0.578,0.578,0.579,0.579,0.579,0.579,0.579,0.578,0.578,0.578,0.578,0.578,0.578,0.578,0.578,0.578,0.577,0.577,0.577,0.578,0.578,0.579,0.58,0.582,0.583,0.585,0.588,0,0,0,0,0,0,0,0.508,0.508,0.508,0.508,0.508,0,0,0,0,0,0,0,0,0,0,0,0,0,0,0,0,0,0,0,0,0.569,0.571,0.574,0.575,0.575,0.575,0.575,0.575,0.576,0.575,0.575,0.574,0.575,0.575,0.575,0.574,0.574,0.574,0.574,0.575,0.575,0.575,0.575,0.575,0.575,0.575,0.574,0.574,0.575,0.575,0,0.575,0.574,0.575,0.575,0.575,0.575,0.575,0.574,0.574,0.573,0.573,0.572,0.571,0.57,0.569,0.569,0.568,0.567,0.567,0.567,0.567,0.567,0.567,0.566,0.566,0.567,0.566,0.566,0.567,0.567,0.567,0.567,0.568,0.57,0,0.57,0.57,0.568,0,0,0,0,0,0,0,0,0,0,0,0,0,0,0,0,0,0,0,0,0,0,0,0,0,0,0,0,0,0,0,0,0,0,0,0,0,0,0,0,0,0,0,0,0,0,0,0,0,0,0,0,0,0,0,0,0,0,0,0,0,0,0,0,0,0,0,0,0,0,0,0,0,0,0,0,0,0,0,0,0,0,0,0,0,0,0,0,0,0,0,0,0,0,0,0,0,0,0,0,0,0,0,0,0,0,0,0,0,0,0,0,0,0,0,0,0,0,0,0,0,0,0,0,0,0,0,0,0,0,0,0,0,0,0,0,0,0,0,0,0,0,0,0,0,0,0,0,0,0,0,0,0,0,0,0,0,0,0,0,0,0,0,0,0,0,0,0,0,0,0,0,0,0,0,0,0,0,0,0,0,0,0,0,0,0,0.447,0.447,0.447,0.447,0.447,0.447,0.447,0.447,0.447,0.447,0.446,0.446,0.446,0.445,0.445,0.444,0.442,0.441,0.439,0.438,0.436,0.435,0.434,0.433,0.432,0.431,0.431,0.43,0.43,0.429,0.429,0.428,0.428,0.427,0.427,0.426,0.425,0.425,0.424,0.424,0.424,0.424,0.423,0.421,0.42,0,0.418
0,0,0,0,0,0,0,0,0,0,0,0,0,0,0,0,0,0,0,0,0,0,0,0.371,0.37,0.37,0.37,0,0,0.37,0.37,0.37,0.373,0,0,0.38,0,0.385,0.386,0.387,0.388,0.388,0.389,0.389,0.389,0.389,0.389,0.389,0.39,0.39,0.39,0.39,0.39,0.39,0.39,0.39,0.39,0.39,0.39,0.39,0.39,0.39,0,0,0,0,0,0,0,0,0,0,0,0,0,0,0,0,0,0,0,0,0,0,0,0,0,0.268,0.268,0.268,0.268,0.268,0.268,0.268,0.268,0.268,0.268,0.267,0.267,0.266,0.266,0,0,0,0,0,0,0,0,0,0,0,0,0,0,0,0.446,0.446,0.447,0.446,0.447,0.446,0.447,0.447,0.447,0.447,0.447,0,0,0,0,0,0,0,0,0.447,0.446,0.446,0.447,0.446,0.447,0.447,0.448,0.448,0.449,0.448,0.449,0.449,0.449,0.449,0.448,0.448,0.448,0,0,0.451,0.452,0,0,0,0.464,0,0.472,0.473,0.476,0.478,0.479,0.48,0.481,0.482,0.486,0.492,0,0.502,0.507,0.511,0.516,0.518,0.519,0.52,0.52,0.521,0.521,0.522,0.522,0.523,0.523,0.523,0.523,0.524,0.524,0.525,0.525,0.526,0.526,0.527,0.529,0.53,0.532,0.533,0.535,0.537,0.54,0.542,0.545,0.546,0.548,0.55,0.552,0.554,0.556,0.558,0.559,0.561,0.563,0.564,0.566,0.567,0.568,0.568,0.569,0.568,0.567,0.566,0.564,0.563,0.562,0.563,0.564,0.566,0.569,0.572,0.575,0.578,0.58,0.582,0.583,0.583,0.583,0.584,0.584,0.584,0.584,0.583,0.583,0.582,0.582,0.581,0.58,0.579,0.579,0.579,0.578,0.578,0.578,0.578,0.578,0.577,0.577,0.577,0.576,0.576,0.576,0.575,0.575,0.575,0.575,0.575,0.575,0.575,0.575,0.575,0.575,0.575,0.574,0.574,0.575,0.574,0.574,0.573,0.573,0.572,0.572,0.571,0.57,0.569,0.568,0.567,0.566,0.565,0.564,0.563,0.562,0.561,0.561,0.561,0.562,0.565,0.567,0.578,0.58,0.579,0.583,0.585,0.586,0.585,0.584,0.582,0.58,0.578,0.576,0.575,0.574,0.574,0.574,0.574,0.574,0.575,0.575,0.575,0.575,0.575,0.575,0.575,0.575,0.575,0.575,0.575,0.575,0.575,0.575,0.574,0.574,0.574,0.573,0.573,0.573,0.573,0.574,0.574,0.574,0.575,0,0,0,0,0,0,0,0.507,0.507,0.507,0.507,0.507,0.507,0.507,0,0,0,0,0,0,0,0,0,0,0,0,0,0,0,0,0,0,0,0,0.561,0.566,0.568,0.571,0.572,0.572,0.572,0.572,0.572,0.572,0.571,0.57,0.571,0.571,0.571,0.572,0.571,0.571,0.571,0.572,0.572,0.571,0.572,0.572,0.572,0.572,0.571,0.571,0.571,0.571,0.572,0.571,0.571,0.571,0.572,0.573,0.573,0.573,0.572,0.571,0.571,0.57,0.57,0.569,0.568,0.568,0.567,0.567,0.567,0.566,0.566,0.566,0.566,0.565,0.565,0.565,0.565,0.566,0.566,0.567,0.567,0.567,0.567,0.567,0,0.569,0,0.568,0.567,0,0,0,0,0,0,0,0,0,0,0,0,0,0,0,0,0,0,0,0,0,0,0,0,0,0,0,0,0,0,0,0,0,0,0,0,0,0,0,0,0,0,0,0,0,0,0,0,0,0,0,0,0,0,0,0,0,0,0,0,0,0,0,0,0,0,0,0,0,0,0,0,0,0,0,0,0,0,0,0,0,0,0,0,0,0,0,0,0,0,0,0,0,0,0,0,0,0,0,0,0,0,0,0,0,0,0,0,0,0,0,0,0,0,0,0,0,0,0,0,0,0,0,0,0,0,0,0,0,0,0,0,0,0,0,0,0,0,0,0,0,0,0,0,0,0,0,0,0,0,0,0,0,0,0,0,0,0,0,0,0,0,0,0,0,0,0,0,0,0,0,0,0,0,0,0,0,0,0,0,0,0,0,0,0,0,0,0.446,0.446,0.446,0.446,0.446,0.446,0.447,0.447,0.446,0.446,0.446,0.445,0.445,0.444,0.443,0.441,0.439,0.438,0.436,0.435,0.434,0.432,0.432,0.431,0.431,0.43,0.43,0.429,0.429,0.428,0.428,0.427,0.426,0.425,0.425,0.424,0.424,0.423,0.423,0.423,0.422,0.421,0,0,0.416,0.415
0,0,0,0,0,0,0,0,0,0,0,0,0,0,0,0,0,0,0,0,0,0,0,0,0.37,0.37,0.369,0,0,0.37,0.369,0.37,0.372,0,0,0,0.381,0.383,0.385,0.385,0.387,0.387,0.387,0.388,0.388,0.389,0.389,0.389,0.389,0.389,0.389,0.39,0.39,0.39,0.39,0.39,0.39,0.39,0.39,0.39,0.39,0.39,0,0,0,0,0,0,0,0,0,0,0,0,0,0,0,0,0,0,0,0,0,0,0,0,0,0.268,0.268,0.268,0.268,0.268,0.268,0.268,0.268,0.268,0.267,0.267,0.266,0,0,0,0.264,0,0,0,0,0,0,0,0,0,0,0,0,0,0.444,0.444,0.444,0.445,0.445,0.445,0.445,0.446,0.445,0.445,0,0.446,0,0,0,0,0,0,0,0.447,0.447,0.447,0.447,0.447,0.447,0.447,0.448,0.448,0.448,0.448,0.448,0.448,0,0,0.449,0.448,0.448,0,0.451,0.453,0.454,0.456,0.458,0.46,0.464,0.467,0.469,0.47,0.472,0.474,0.476,0.477,0.478,0.479,0,0.488,0,0.5,0.504,0.509,0.514,0.516,0.518,0.519,0.52,0.52,0.52,0.521,0.521,0.521,0.521,0.521,0.521,0.522,0.522,0.523,0.523,0.523,0.524,0.525,0.525,0.527,0.529,0.53,0.532,0.535,0.538,0.541,0.543,0.545,0.547,0.549,0.551,0.552,0.554,0.556,0.556,0.558,0.559,0.561,0.562,0.563,0.564,0.564,0.563,0.562,0.561,0.558,0.557,0.555,0.554,0.554,0.556,0.557,0.56,0.563,0.567,0.569,0.572,0.573,0.574,0.575,0.575,0.575,0.576,0.576,0.575,0.575,0.575,0.575,0.575,0.575,0.574,0.572,0.572,0.572,0.571,0.57,0.57,0.57,0.57,0.57,0.57,0.57,0.569,0.569,0.569,0.569,0.568,0.568,0.568,0.568,0.568,0.568,0.568,0.569,0.569,0.569,0.569,0.569,0.569,0.569,0.568,0.568,0.567,0.567,0.566,0.565,0.564,0.562,0.561,0.561,0.559,0.559,0.557,0.556,0.556,0.554,0.554,0.554,0.555,0.558,0.56,0,0.567,0.572,0.576,0.58,0.583,0.583,0.583,0.581,0.578,0.576,0.575,0.573,0.572,0.572,0.572,0.572,0.571,0.572,0.572,0.572,0.572,0.572,0.571,0.572,0.572,0.572,0.572,0.572,0.572,0.571,0.571,0.571,0.57,0.57,0.569,0.568,0.568,0.567,0.568,0.568,0.568,0.568,0.568,0,0,0,0,0,0.506,0.506,0.506,0.505,0.505,0.505,0.505,0.505,0,0,0,0,0,0,0,0,0,0,0,0,0,0,0,0,0,0,0,0,0,0,0,0.568,0,0.57,0.57,0.57,0.57,0.57,0.569,0.569,0.569,0.57,0.57,0.57,0.57,0.569,0.57,0.57,0.57,0.57,0.57,0.57,0.57,0.57,0.569,0.569,0.569,0.569,0.57,0.569,0.569,0.569,0.57,0.57,0.571,0.571,0.57,0.57,0.569,0.569,0.569,0.568,0.567,0.567,0.567,0.567,0.566,0.566,0.565,0.565,0.565,0.565,0.564,0.565,0.565,0.565,0.566,0.566,0.566,0.566,0.567,0.567,0,0,0.567,0.567,0,0,0,0,0,0,0,0,0,0,0,0,0,0,0,0,0,0,0,0,0,0,0,0,0,0,0,0,0,0,0,0,0,0,0,0,0,0,0,0,0,0,0,0,0,0,0,0,0,0,0,0,0,0,0,0,0,0,0,0,0,0,0,0,0,0,0,0,0,0,0,0,0,0,0,0,0,0,0,0,0,0,0,0,0,0,0,0,0,0,0,0,0,0,0,0,0,0,0,0,0,0,0,0,0,0,0,0,0,0,0,0,0,0,0,0,0,0,0,0,0,0,0,0,0,0,0,0,0,0,0,0,0,0,0,0,0,0,0,0,0,0,0,0,0,0,0,0,0,0,0,0,0,0,0,0,0,0,0,0,0,0.453,0,0,0,0,0.455,0.456,0.456,0.456,0.456,0.457,0,0,0,0,0,0,0,0,0,0,0,0,0,0,0,0.444,0.445,0.445,0.445,0.445,0.446,0.446,0.446,0.446,0.446,0.445,0.445,0.445,0.444,0.443,0.442,0.44,0.439,0,0.435,0.434,0.433,0.432,0.431,0.431,0.43,0.43,0.429,0.429,0.428,0.428,0.427,0.426,0.425,0.425,0.424,0.424,0.423,0.422,0.422,0.421,0.42,0.418,0.416,0,0.413,0.413
0,0,0,0,0,0,0,0,0,0,0,0,0,0,0,0,0,0,0,0,0,0,0,0.37,0.369,0.369,0.369,0.369,0.369,0.369,0.369,0.37,0.371,0.373,0.375,0.377,0,0.381,0.382,0.384,0.385,0.386,0.386,0.387,0.387,0.387,0.388,0.388,0.388,0.388,0.389,0.389,0.389,0.389,0.389,0.389,0.389,0.389,0.389,0.389,0.389,0.389,0.389,0,0,0,0,0,0,0,0,0,0,0,0,0,0,0,0,0,0,0,0,0,0,0,0,0,0.268,0.268,0.268,0.268,0.268,0.268,0.267,0.267,0.266,0.266,0,0,0.264,0.264,0.263,0,0,0,0,0,0,0,0,0,0,0,0,0,0,0,0.443,0,0.444,0.443,0.444,0.444,0.444,0.444,0.444,0.444,0,0,0,0,0,0,0,0.447,0.447,0.447,0.447,0.447,0.447,0.447,0.447,0.447,0.448,0.448,0.448,0.448,0.448,0.449,0.449,0.448,0.449,0.451,0.452,0.454,0.456,0.457,0.459,0.461,0.463,0.465,0.467,0.468,0.47,0.472,0.473,0.475,0.475,0.477,0.48,0.485,0,0,0.503,0.508,0.513,0.515,0.518,0.518,0.518,0.519,0.52,0.52,0.52,0.52,0.52,0.52,0.521,0.52,0.521,0.521,0.521,0.521,0.522,0.523,0.523,0.525,0.526,0.528,0.53,0.532,0.535,0.538,0.54,0.542,0.545,0.547,0.548,0.551,0.552,0.553,0.554,0.554,0.556,0.556,0.557,0.558,0.559,0.558,0.557,0.556,0.554,0.552,0.55,0.548,0.546,0.546,0.547,0.549,0.552,0.555,0.558,0.56,0.563,0.565,0.566,0.566,0.567,0.567,0.567,0.568,0.569,0.569,0.568,0.568,0.567,0.566,0.565,0.564,0.563,0.562,0.562,0.562,0.561,0.561,0.561,0.562,0.562,0,0.562,0.562,0.563,0.563,0.562,0.562,0.562,0.562,0.563,0.563,0.563,0.563,0.563,0.563,0.564,0.564,0.564,0.563,0.564,0.563,0.562,0.561,0.56,0.559,0.558,0.557,0.556,0.555,0.553,0.553,0.552,0.551,0.55,0.549,0.548,0.548,0.549,0.552,0.553,0.555,0,0.571,0.574,0.581,0.579,0.582,0.582,0.578,0.577,0.573,0.572,0.572,0.571,0.57,0.569,0.57,0.569,0.569,0.569,0.569,0.568,0.568,0.568,0.567,0.567,0.567,0.567,0.566,0.565,0.565,0.564,0.564,0.564,0.563,0.562,0.561,0.561,0.561,0.561,0.56,0.559,0.557,0,0,0,0,0,0.507,0.505,0.504,0.504,0.504,0.504,0.504,0.504,0.503,0.502,0.502,0.501,0,0,0,0,0,0,0,0,0,0,0,0,0,0,0,0,0,0,0,0,0,0.567,0.568,0.568,0.568,0.568,0.568,0.568,0,0,0.569,0.569,0.57,0.569,0.569,0.569,0.57,0.57,0.57,0.569,0.569,0.569,0.569,0.568,0.568,0.568,0.568,0.568,0.568,0.567,0.567,0.568,0.569,0.569,0.569,0.568,0.568,0.567,0.567,0.567,0.567,0.567,0.567,0.567,0.566,0.566,0.566,0.565,0.565,0.565,0.565,0.564,0.564,0.565,0.565,0.565,0.566,0,0,0.566,0.567,0,0,0,0,0,0,0,0,0,0,0,0,0,0,0,0,0,0,0,0,0,0,0,0,0,0,0,0,0,0,0,0,0,0,0,0,0,0,0,0,0,0,0,0,0,0,0,0,0,0,0,0,0,0,0,0,0,0,0,0,0,0,0,0,0,0,0,0,0,0,0,0,0,0,0,0,0,0,0,0,0,0,0,0,0,0,0,0,0,0,0,0,0,0,0,0,0,0,0,0,0,0,0,0,0,0,0,0,0,0,0,0,0,0,0,0,0,0,0,0,0,0,0,0,0,0,0,0,0,0,0,0,0,0,0,0,0,0,0,0,0,0,0,0,0,0,0,0,0,0,0,0,0,0,0,0,0,0,0,0,0,0,0,0,0,0,0,0,0,0.455,0.455,0.456,0.456,0.457,0.457,0.457,0,0,0,0,0,0,0,0,0,0,0,0,0,0,0.443,0.443,0.443,0.444,0.444,0.445,0.445,0.445,0.445,0.445,0.445,0.445,0.445,0.444,0.443,0.442,0.441,0.44,0.438,0,0.435,0.434,0.432,0.431,0.431,0.431,0.43,0.429,0.429,0.428,0.428,0.427,0.427,0.426,0.425,0.424,0.423,0.423,0.421,0.421,0.42,0.419,0.417,0.416,0.414,0.412,0.411,0.411
0,0,0,0,0,0,0,0,0,0,0,0,0,0,0,0,0,0,0,0,0,0,0,0,0,0.369,0.369,0.369,0.369,0.369,0.369,0.37,0.37,0.372,0.374,0.375,0.377,0.379,0.381,0.382,0.383,0.384,0.384,0.385,0.385,0.386,0.386,0.386,0.387,0.387,0.387,0.388,0.388,0.388,0.389,0.389,0.389,0.389,0.389,0.389,0.389,0.388,0.388,0,0,0,0,0,0,0,0,0,0,0,0,0,0,0,0,0,0,0,0,0,0,0,0,0,0,0,0.268,0.268,0.268,0.267,0.266,0.266,0.265,0,0,0,0.263,0.263,0,0,0,0,0,0,0,0,0,0,0,0,0.442,0.442,0,0.442,0.442,0.442,0.442,0.442,0.443,0.443,0.442,0.443,0.443,0.443,0.442,0,0,0,0,0.447,0,0.448,0.448,0.447,0.447,0.447,0.447,0.447,0.447,0.447,0.447,0.447,0.447,0.447,0.447,0.448,0.448,0.448,0.448,0.45,0.452,0.454,0.456,0.457,0.459,0.461,0.462,0.464,0.465,0.466,0.468,0.469,0.471,0.472,0.472,0.473,0.477,0,0.487,0.493,0.502,0.507,0.512,0.514,0.517,0.518,0.518,0.519,0.519,0.52,0.52,0.52,0.52,0.52,0.52,0.52,0.52,0.52,0.52,0.52,0.52,0.521,0.522,0.523,0.524,0.526,0.528,0.53,0.532,0.534,0.537,0.54,0.542,0.544,0.546,0.548,0.549,0.551,0.551,0.552,0.552,0.553,0.553,0.553,0.553,0.552,0.551,0.549,0.547,0.545,0.543,0.541,0.539,0.539,0.54,0.542,0.544,0.546,0.549,0.552,0.556,0.558,0.559,0.557,0.556,0,0.557,0.557,0.557,0.556,0.557,0.557,0.557,0.557,0.556,0.555,0.555,0.554,0.554,0.554,0.554,0.554,0.555,0.556,0.556,0.556,0.556,0.556,0.556,0.556,0.557,0.556,0.556,0.557,0.556,0.557,0.557,0.558,0.558,0.558,0.559,0.559,0.559,0.559,0.559,0.559,0.558,0.557,0.556,0.556,0.555,0.554,0.553,0.552,0.55,0.549,0.548,0.548,0.547,0.546,0.545,0.545,0.544,0.545,0.547,0.548,0.548,0.549,0,0,0,0,0,0,0,0,0.57,0.571,0.569,0.568,0.568,0.567,0.567,0.566,0.565,0.565,0.564,0.564,0.563,0.562,0.561,0.561,0.56,0.56,0.559,0.558,0.557,0.557,0.556,0.556,0.555,0.554,0.554,0.554,0.553,0.552,0.55,0.548,0,0,0,0,0,0.506,0.504,0.503,0.503,0.503,0.502,0.502,0.502,0.501,0.501,0.501,0.5,0.498,0.497,0.496,0.496,0,0,0,0,0,0,0,0,0,0,0,0,0,0,0,0,0.555,0.563,0,0,0.566,0.566,0.566,0,0,0,0.568,0.568,0.569,0.568,0.569,0.569,0.57,0.57,0.57,0.57,0.569,0.569,0.568,0.568,0.568,0.568,0.568,0.568,0.567,0.567,0.567,0.567,0.568,0.568,0.568,0.567,0.567,0.567,0.567,0.567,0.567,0.566,0.566,0.566,0.566,0.566,0.566,0.565,0.565,0.565,0.564,0.564,0.565,0.564,0.565,0.565,0.566,0.566,0,0,0.567,0,0,0,0,0,0,0,0,0,0,0,0,0,0,0,0,0,0,0,0,0,0,0,0,0,0,0,0,0,0,0,0,0,0,0,0,0,0,0,0,0,0,0,0,0,0,0,0,0,0,0,0,0,0,0,0,0,0,0,0,0,0,0,0,0,0,0,0,0,0,0,0,0,0,0,0,0,0,0,0,0,0,0,0,0,0,0,0,0,0,0,0,0,0,0,0,0,0,0,0,0,0,0,0,0,0,0,0,0,0,0,0,0,0,0,0,0,0,0,0,0,0,0,0,0,0,0,0,0,0,0,0,0,0,0,0,0,0,0,0,0,0,0,0,0,0,0,0,0,0,0,0,0,0,0,0,0,0,0,0,0,0,0,0,0.454,0.454,0,0.454,0.455,0.455,0.455,0.456,0.456,0.456,0.456,0.457,0.457,0,0,0,0,0,0,0,0,0,0,0,0,0.442,0.442,0.442,0.442,0.443,0.443,0.443,0.444,0.444,0.444,0.445,0.445,0.444,0.444,0.443,0.443,0.442,0.44,0.439,0.437,0.436,0.435,0.433,0.432,0.432,0.431,0.43,0.43,0.429,0.429,0.428,0.427,0.427,0.426,0.425,0.424,0.424,0.422,0.421,0.42,0.419,0.418,0.416,0.414,0.413,0.411,0.41,0.409,0
0,0,0,0,0,0,0,0,0,0,0,0,0,0,0,0,0,0,0,0,0,0,0,0,0,0,0.368,0.369,0.369,0.369,0.369,0.369,0.37,0.371,0.372,0.374,0.375,0.377,0.378,0.38,0.381,0.382,0.382,0.383,0.383,0.384,0.384,0.384,0.385,0.385,0.386,0.386,0.387,0.387,0.388,0.388,0.388,0.388,0.388,0.388,0.388,0.388,0.387,0.387,0,0,0,0,0,0,0,0,0,0,0,0,0,0,0,0,0.404,0.404,0,0,0,0,0,0,0,0,0,0,0,0,0.265,0.265,0.264,0.264,0.263,0.263,0.262,0,0,0,0,0,0,0,0,0,0,0,0.441,0.441,0.441,0.441,0.441,0.441,0.441,0.441,0.442,0.442,0.442,0.442,0.442,0.442,0.442,0.442,0.442,0,0,0,0,0.447,0.448,0.448,0.448,0.448,0.448,0.448,0.448,0.448,0.448,0.447,0.447,0.447,0.446,0.446,0.446,0.447,0.447,0.447,0.448,0.449,0.451,0.453,0.456,0.457,0.459,0.46,0.461,0.463,0.464,0.465,0.466,0.467,0.468,0.469,0.47,0.471,0.473,0.476,0.481,0.486,0.495,0.506,0.511,0.514,0.517,0.518,0.518,0.519,0.519,0.52,0.52,0.52,0.52,0.519,0.519,0.518,0.518,0.518,0.518,0.518,0.519,0.52,0.52,0.521,0.522,0.524,0.525,0.527,0.529,0.532,0.534,0.535,0.537,0.538,0.539,0.541,0.542,0.542,0.542,0.543,0.544,0.545,0.545,0.545,0.545,0.544,0,0.541,0.539,0.538,0.537,0.535,0.534,0.534,0.534,0.536,0.537,0.539,0.541,0.543,0.545,0.547,0.547,0.547,0.547,0.547,0,0.548,0.548,0.548,0.548,0.548,0.548,0.548,0.547,0.546,0.546,0.546,0.546,0.546,0.547,0.547,0.547,0.548,0.549,0.55,0.55,0.551,0.552,0.552,0.552,0.552,0.552,0.552,0.552,0.553,0.553,0.553,0.554,0.554,0.555,0.555,0.555,0.555,0.555,0.555,0.554,0.553,0.553,0.552,0.552,0.551,0.55,0.548,0.548,0.546,0.545,0.545,0.544,0.543,0.542,0.542,0.541,0.542,0.542,0.541,0.54,0.538,0.533,0.531,0,0,0,0,0,0,0,0,0.568,0.567,0.567,0.567,0.565,0.564,0.563,0.562,0.561,0.56,0.559,0.558,0.556,0.556,0.555,0.554,0.553,0.552,0.551,0.551,0.55,0.549,0.549,0.548,0.547,0.547,0.546,0.545,0.543,0.539,0.537,0.531,0.524,0.515,0,0.505,0.503,0.501,0.501,0.501,0.5,0.5,0.5,0.5,0.5,0.499,0.498,0.497,0.496,0.496,0.496,0,0,0,0,0,0,0,0,0,0,0,0,0,0,0,0,0,0.557,0.557,0.56,0.561,0.561,0.562,0.562,0,0.565,0.567,0.567,0.568,0.568,0.568,0.569,0.57,0.57,0.57,0.569,0.569,0.569,0.568,0.568,0.567,0.567,0.567,0.567,0.567,0.567,0.567,0.567,0.567,0.567,0.567,0.566,0.566,0.566,0.566,0.566,0.566,0.566,0.566,0.567,0.566,0.566,0.566,0.565,0.565,0.564,0.564,0.564,0.564,0.564,0.564,0.564,0.565,0.565,0.565,0.565,0.566,0,0,0,0,0,0,0,0,0,0,0,0,0,0,0,0,0,0,0,0,0,0,0,0,0,0,0,0,0,0,0,0,0,0,0,0,0,0,0,0,0,0,0,0,0,0,0,0,0,0,0,0,0,0,0,0,0,0,0,0,0,0,0,0,0,0,0,0,0,0,0,0,0,0,0,0,0,0,0,0,0,0,0,0,0,0,0,0,0,0,0,0,0,0,0,0,0,0,0,0,0,0,0,0,0,0,0,0,0,0,0,0,0,0,0,0,0,0,0,0,0,0,0,0,0,0,0,0,0,0,0,0,0,0,0,0,0,0,0,0,0,0,0,0,0,0,0,0,0,0,0,0,0,0,0,0,0,0,0,0,0,0.453,0.453,0.454,0.454,0.454,0.454,0.454,0.455,0.455,0.455,0.456,0.456,0.456,0.456,0.456,0.456,0.456,0.455,0.454,0,0,0,0,0,0.442,0.441,0.441,0.441,0.441,0.441,0.441,0.441,0.441,0.442,0.442,0.442,0.443,0.444,0.444,0.444,0.444,0.444,0.443,0.442,0.441,0.44,0.439,0.438,0.436,0.435,0.434,0.432,0.432,0.431,0.431,0.43,0.429,0.429,0.428,0.428,0.427,0.426,0.425,0.424,0.423,0.421,0.42,0.418,0.417,0.415,0.414,0.412,0.411,0.409,0.408,0.407,0.407
0,0,0,0,0,0,0,0,0,0,0,0,0,0,0,0,0,0,0,0,0,0,0,0,0,0,0.367,0.367,0.368,0.368,0.368,0.369,0.369,0.37,0.371,0.372,0.374,0.375,0.376,0.377,0.378,0.379,0.38,0.38,0.381,0.381,0.382,0.382,0.383,0.383,0.384,0.385,0.385,0.386,0.386,0.386,0.387,0.387,0.387,0.387,0.387,0.386,0.386,0.386,0.386,0,0,0,0,0,0,0,0,0,0,0,0,0,0,0.402,0.403,0.403,0.404,0.404,0.404,0,0,0,0,0,0,0,0,0,0,0,0,0.263,0,0.262,0.262,0,0,0,0,0,0,0.439,0,0,0,0,0,0.441,0.441,0.441,0.441,0.441,0.441,0.441,0.441,0.441,0.441,0.441,0.441,0.441,0.441,0.441,0.441,0,0,0,0,0.446,0.448,0.448,0.448,0.448,0.448,0.448,0.448,0.448,0.448,0.448,0.447,0.446,0.446,0.445,0.446,0.445,0.446,0.446,0,0.449,0.451,0.453,0.455,0.457,0.459,0.46,0.461,0.462,0.463,0.464,0.465,0.465,0.466,0.466,0.467,0.468,0.469,0.472,0.475,0.479,0,0.503,0.51,0.514,0.517,0.518,0.518,0.519,0.519,0.52,0.52,0.519,0.519,0.519,0.518,0.518,0.518,0.517,0.517,0.517,0.518,0.518,0.518,0.519,0.519,0.52,0.521,0.523,0.524,0.525,0.527,0.529,0.529,0.531,0.532,0.533,0.533,0.534,0.534,0.535,0.535,0.536,0.536,0.537,0.537,0.536,0.535,0.533,0.532,0.532,0.531,0.53,0.529,0.529,0.529,0.53,0.532,0.533,0.534,0.535,0.537,0.537,0.538,0.538,0.538,0.538,0.538,0.538,0.538,0.539,0,0.539,0.539,0.539,0.539,0.539,0.539,0.539,0.539,0.539,0.54,0.54,0.542,0.542,0.543,0.544,0.545,0.545,0.546,0.547,0.547,0.548,0.548,0.548,0.548,0.549,0.549,0.55,0.55,0.55,0.551,0.551,0.551,0.551,0.552,0.551,0.551,0.551,0.55,0.549,0.549,0.548,0.547,0.545,0.544,0.543,0.542,0.541,0.54,0.539,0.539,0.538,0.537,0.537,0.537,0.536,0.533,0.529,0,0.52,0.516,0.513,0.509,0,0,0,0,0,0,0,0.565,0.565,0.563,0.562,0.56,0.559,0.557,0.556,0.554,0.553,0.551,0.549,0.548,0.548,0.546,0.545,0.545,0.545,0.544,0.543,0.543,0.542,0.542,0.542,0.54,0.539,0.538,0.535,0.532,0,0,0,0,0,0,0.5,0.499,0.499,0.498,0.498,0.498,0.498,0.498,0.498,0.497,0.496,0.496,0.495,0.495,0,0,0,0,0,0,0,0,0,0,0,0,0,0,0,0,0,0,0.551,0,0,0,0,0,0.561,0.563,0.565,0.566,0.568,0.568,0.568,0.569,0.57,0.57,0.57,0.57,0.569,0.569,0.568,0.567,0.567,0.567,0.567,0.567,0.567,0.566,0.567,0.566,0.567,0.567,0.566,0.566,0.565,0.565,0.566,0.566,0.566,0.566,0.566,0.566,0.566,0.566,0.566,0.565,0.565,0.564,0.564,0.564,0.563,0.564,0.564,0.564,0.565,0.565,0.565,0.565,0.565,0,0,0,0,0,0,0,0,0,0,0,0,0,0,0,0,0,0,0,0,0,0,0,0,0,0,0,0,0,0,0,0,0,0,0,0,0,0,0,0,0,0,0,0,0,0,0,0,0,0,0,0,0,0,0,0,0,0,0,0,0,0,0,0,0,0,0,0,0,0,0,0,0,0,0,0,0,0,0,0,0,0,0,0,0,0,0,0,0,0,0,0,0,0,0,0,0,0,0,0,0,0,0,0,0,0,0,0,0,0,0,0,0,0,0,0,0,0,0,0,0,0,0,0,0,0,0,0,0,0,0,0,0,0,0,0,0,0,0,0,0,0,0,0,0,0,0,0,0,0,0,0,0,0,0,0.454,0.453,0.453,0.453,0.453,0.453,0.453,0.453,0.454,0.454,0.454,0.454,0.455,0.455,0.455,0.455,0.456,0.456,0.456,0.456,0.456,0.455,0.454,0.453,0.452,0,0,0,0,0,0,0.441,0.441,0.441,0.441,0.441,0.441,0.441,0.441,0.442,0.442,0.442,0.442,0.443,0.443,0.443,0.443,0.443,0.443,0.442,0.441,0.44,0.44,0.438,0.437,0.435,0.434,0.433,0.432,0.432,0.431,0.43,0.429,0.429,0.428,0.427,0.427,0.426,0.425,0.423,0.422,0.42,0.418,0.416,0.414,0.413,0.411,0.41,0.408,0.407,0.406,0.406,0.405
0,0,0,0,0,0,0,0,0,0,0,0,0,0,0,0,0,0,0,0,0,0,0,0,0,0,0,0,0.367,0.367,0.368,0.368,0.369,0.37,0.371,0.371,0.372,0.373,0.373,0.374,0.375,0.376,0.377,0.377,0.378,0.378,0.379,0.379,0.38,0.381,0.381,0.382,0.383,0.384,0.384,0.384,0.385,0.385,0.385,0.385,0.385,0.385,0.385,0.385,0.385,0,0,0,0,0,0,0,0,0,0,0,0,0.397,0.399,0.399,0.4,0.401,0.402,0.403,0.403,0.404,0.404,0,0,0,0,0,0,0,0,0,0.262,0.262,0.262,0.262,0,0,0,0,0,0,0.439,0.439,0.44,0,0,0,0,0.441,0.441,0.441,0.441,0.44,0.44,0.44,0.44,0.44,0.441,0.44,0.44,0.44,0.44,0.44,0.44,0,0,0,0,0,0.447,0.448,0.448,0.448,0.448,0.448,0.448,0.448,0.448,0.448,0.447,0.446,0.446,0.445,0.445,0.445,0.445,0.445,0.446,0.448,0.451,0.453,0.455,0.457,0.458,0.46,0.461,0.462,0.462,0.463,0.464,0.464,0.465,0.465,0.465,0.466,0.467,0.468,0.471,0.474,0,0,0,0.514,0.518,0.518,0.519,0.519,0.519,0.52,0.519,0.519,0.519,0.518,0.517,0.517,0.516,0.516,0.516,0.516,0.516,0.516,0.516,0.517,0.517,0.517,0.518,0.519,0.519,0.52,0.52,0.521,0.522,0.523,0.524,0.525,0.525,0.526,0.527,0.527,0.527,0.528,0.528,0.529,0.529,0.528,0.527,0.527,0.526,0.525,0.525,0.525,0.525,0.525,0.525,0.525,0.526,0.527,0.527,0.528,0.529,0.529,0.529,0.529,0.529,0.527,0.528,0.525,0.525,0.53,0.53,0.531,0.532,0.532,0.532,0.532,0.532,0.533,0.533,0.534,0.535,0.536,0.537,0.537,0.539,0.539,0.54,0.541,0.542,0.543,0.543,0.544,0.544,0.544,0.545,0.545,0.545,0.546,0.546,0.547,0.547,0.548,0.548,0.548,0.548,0.548,0.548,0.547,0.548,0.547,0.546,0.545,0.543,0.542,0.539,0.539,0.537,0.536,0.535,0.534,0.533,0.533,0.532,0.531,0.529,0.527,0.525,0.522,0.52,0.517,0.514,0.511,0.509,0,0,0,0,0,0,0,0,0,0.561,0.558,0.557,0.555,0.553,0.552,0,0,0.545,0.543,0.542,0.54,0.539,0.539,0.538,0.538,0.538,0.537,0.537,0.536,0.536,0.536,0.535,0.533,0.532,0.528,0.526,0.521,0.516,0.51,0,0,0.498,0.498,0.497,0.497,0.496,0.496,0.497,0.497,0.497,0.497,0.497,0.496,0.496,0.495,0.495,0,0,0,0,0,0,0,0,0,0,0,0,0,0,0,0,0,0,0,0,0.551,0.553,0,0.557,0.558,0.562,0.565,0.567,0.568,0.568,0.568,0.569,0.57,0.57,0.57,0.569,0.569,0.569,0.568,0.567,0.567,0.567,0.567,0.567,0.567,0.566,0.566,0.566,0.567,0.566,0.566,0.565,0.565,0.565,0.566,0.566,0.566,0.566,0.566,0.567,0.566,0.566,0.566,0.565,0.564,0.564,0.564,0.564,0.563,0,0,0,0,0,0,0,0,0,0,0,0,0,0,0,0,0,0,0,0,0,0,0,0,0,0,0,0,0,0,0,0,0,0,0,0,0,0,0,0,0,0,0,0,0,0,0,0,0,0,0,0,0,0,0,0,0,0,0,0,0,0,0,0,0,0,0,0,0,0,0,0,0,0,0,0,0,0,0,0,0,0,0,0,0,0,0,0,0,0,0,0,0.487,0.487,0.487,0.487,0.487,0.487,0.487,0.488,0,0,0,0,0,0,0,0,0,0,0,0,0,0,0,0,0,0,0,0,0,0,0,0,0,0,0,0,0,0,0,0,0,0,0,0,0,0,0,0,0,0,0,0,0,0,0,0,0,0,0,0,0,0,0,0,0,0,0,0,0.457,0.456,0.454,0.453,0.453,0.453,0.453,0.453,0.453,0.453,0.453,0.454,0.454,0.454,0.454,0.455,0.455,0.455,0.456,0.456,0.455,0.455,0.455,0.454,0.453,0.452,0.45,0.448,0.446,0.444,0.443,0.442,0.441,0.44,0.44,0.441,0.441,0.441,0.441,0.441,0.441,0.441,0.441,0.441,0.441,0.442,0.442,0.442,0.442,0.442,0.442,0.442,0.441,0.441,0.44,0.439,0.438,0.437,0.436,0.435,0.434,0.433,0.432,0.431,0.43,0.429,0.428,0.428,0.427,0.427,0.426,0.424,0.423,0.421,0.419,0.416,0.414,0.412,0.411,0.41,0.408,0.407,0.406,0.405,0.404,0.404
0,0,0,0,0,0,0,0,0,0,0,0,0,0,0,0,0,0,0,0,0,0,0,0,0,0,0,0.365,0.366,0.367,0.367,0.368,0.368,0.369,0.37,0.37,0.371,0.372,0.373,0.373,0.374,0.374,0.374,0.375,0.375,0.376,0.377,0.377,0.377,0.378,0.379,0.38,0.381,0.381,0.382,0.382,0.383,0.383,0.384,0.384,0.383,0.384,0.384,0.384,0.384,0.384,0,0,0,0,0,0,0,0,0,0,0,0.396,0.397,0.397,0.398,0.399,0.4,0.401,0.401,0.401,0.402,0.402,0,0,0,0,0,0,0,0,0.261,0.261,0,0,0,0,0,0,0,0,0.439,0.439,0.44,0.44,0.441,0.441,0.441,0.441,0.441,0.441,0.441,0.44,0.44,0.44,0.44,0.44,0.44,0.44,0.44,0.439,0.439,0.439,0.438,0,0,0,0,0.444,0.446,0.447,0.448,0.448,0.448,0.448,0.448,0.448,0.448,0.448,0.447,0.446,0.446,0.445,0.445,0.444,0.444,0.445,0.446,0.447,0.45,0.452,0.454,0.456,0.458,0.459,0.46,0.461,0.462,0.462,0.462,0.463,0.463,0.463,0.464,0.464,0.465,0.465,0.465,0.466,0.47,0,0,0,0.518,0.518,0.519,0.519,0.519,0.519,0.519,0.519,0.518,0.518,0.517,0.517,0.516,0.516,0.516,0.516,0.516,0.515,0.514,0.514,0.514,0.513,0.513,0.513,0.513,0.513,0.514,0.514,0.515,0.516,0.517,0,0,0,0.52,0.52,0.521,0.521,0,0.521,0.522,0,0.521,0.521,0.52,0.52,0.52,0.52,0.52,0.52,0.52,0.52,0.52,0.521,0.52,0.52,0.52,0.521,0.52,0.52,0.521,0.521,0.521,0.522,0.523,0.524,0.525,0.525,0.527,0.527,0.527,0.528,0.528,0.529,0.529,0.53,0.531,0.532,0.533,0.534,0.534,0.536,0.537,0.537,0.538,0.539,0.539,0.539,0.54,0.54,0.541,0.542,0.542,0.542,0.543,0.543,0.544,0.545,0.545,0.545,0.545,0.545,0.545,0.545,0.544,0.543,0.542,0.54,0.538,0.536,0.534,0.533,0.532,0.531,0.53,0.529,0.528,0.527,0.527,0.526,0.524,0.522,0.521,0.518,0.516,0.514,0.512,0.509,0.506,0,0,0,0.497,0.495,0.494,0,0,0,0,0.546,0.552,0.552,0.549,0.547,0.544,0.542,0.539,0.537,0.536,0.534,0.533,0.532,0.532,0.532,0.532,0.531,0.531,0.531,0.531,0.531,0.531,0.529,0.527,0.524,0.521,0.516,0.512,0.506,0,0.498,0.497,0.496,0.495,0.495,0.495,0.494,0.494,0.495,0.495,0.495,0.495,0.495,0.495,0.496,0.496,0,0,0,0,0,0,0,0,0,0,0,0,0,0,0,0,0,0,0,0,0,0,0,0,0.558,0.562,0.566,0.567,0.569,0.569,0.569,0.57,0.57,0.57,0.57,0.569,0.569,0.569,0.568,0.567,0.567,0.567,0.567,0.567,0.567,0.567,0.566,0.567,0.567,0.567,0.566,0.566,0.565,0.565,0.566,0.566,0.566,0.567,0.567,0.567,0.567,0.567,0.567,0.566,0.565,0.565,0.564,0.564,0.564,0.564,0.564,0.564,0.565,0,0,0,0,0,0,0,0,0,0,0,0,0,0,0,0,0,0,0,0,0,0,0,0,0,0,0,0,0,0,0,0,0,0,0,0,0,0,0,0,0,0,0,0,0,0,0,0,0,0,0,0,0,0,0,0,0,0,0,0,0,0,0,0,0,0,0,0,0,0,0,0,0,0,0,0,0,0,0,0,0,0,0,0,0,0,0.488,0.487,0.487,0.487,0.487,0.487,0.487,0.486,0.486,0.486,0,0,0,0,0,0,0,0,0,0,0,0,0,0,0,0,0,0,0,0,0,0,0,0,0,0,0,0,0,0,0,0,0,0,0,0,0,0,0,0,0,0,0,0,0,0,0,0,0,0,0,0,0,0,0,0,0,0,0,0,0.457,0.456,0.454,0.453,0.453,0.453,0.453,0.452,0.453,0.453,0.453,0.454,0.454,0.454,0.455,0.455,0.455,0.455,0.455,0.454,0.454,0.453,0.452,0.451,0.45,0.448,0.447,0.446,0.444,0.442,0.441,0.44,0.44,0.44,0.44,0.44,0.44,0.441,0.441,0.44,0.441,0.441,0.441,0.441,0.441,0.441,0.441,0.441,0.441,0.441,0.441,0.441,0.44,0.44,0.439,0.438,0.438,0.437,0.436,0.435,0.434,0.433,0.432,0.431,0.431,0.43,0.429,0.428,0.428,0.427,0.426,0.424,0.422,0.42,0.417,0.414,0.412,0.41,0.409,0.407,0.406,0.405,0.405,0.404,0.403,0.403
0,0,0,0,0,0,0,0,0,0,0,0,0,0,0,0,0,0,0,0,0,0,0,0,0,0.364,0,0.364,0.364,0.365,0.365,0.366,0.367,0.368,0.369,0.37,0.371,0.372,0.372,0.373,0.373,0.374,0.374,0.374,0.374,0.375,0.375,0.375,0.376,0.377,0.377,0.378,0.378,0.379,0.38,0.38,0.381,0.381,0.381,0.382,0.382,0.382,0.382,0.382,0.383,0.383,0,0,0,0,0,0,0,0.389,0,0.392,0,0,0.395,0.396,0.397,0.398,0.398,0.399,0.399,0.399,0.4,0.4,0.401,0,0,0,0,0,0,0,0,0,0,0,0,0,0,0,0,0,0.439,0.439,0.44,0.441,0.441,0.441,0.441,0.441,0.441,0.441,0.44,0.44,0.44,0.44,0.44,0.439,0.439,0.439,0.439,0.438,0.438,0.438,0.438,0.438,0,0,0,0,0.445,0.447,0.448,0.448,0.448,0.448,0.449,0.449,0.448,0.448,0.447,0.447,0.445,0.445,0.444,0.444,0.444,0.444,0.444,0.446,0.448,0.451,0.454,0.455,0.457,0.459,0.46,0.46,0.461,0.461,0.461,0.462,0.462,0.462,0.462,0.462,0.462,0.463,0.462,0.462,0.463,0.462,0.463,0.462,0,0,0.519,0.519,0.52,0.52,0.519,0.518,0.518,0.518,0.517,0.516,0,0.515,0.515,0.515,0.515,0.514,0.513,0.512,0.511,0.51,0.509,0.508,0.508,0.508,0.508,0.508,0.508,0.509,0.51,0.511,0.511,0.511,0.513,0.514,0.514,0.514,0.514,0.515,0.515,0.515,0.516,0.515,0.515,0.515,0.516,0.516,0.517,0.517,0.517,0.516,0.516,0.516,0.516,0.516,0.516,0.516,0.516,0.516,0.516,0.517,0.518,0.518,0.519,0.52,0.52,0.521,0.522,0.523,0.523,0.524,0.524,0.525,0.525,0.527,0.527,0.528,0.529,0.53,0.531,0.532,0.532,0.534,0.534,0.535,0.536,0.536,0.537,0.537,0.537,0.538,0.538,0.538,0.539,0.539,0.54,0.541,0.541,0.541,0.541,0.541,0.541,0.541,0.54,0.538,0.537,0.536,0.533,0.531,0.528,0.527,0.526,0.525,0.524,0.523,0.522,0.521,0.521,0.52,0.518,0.517,0.516,0.515,0.513,0.511,0.509,0.507,0.505,0.503,0.5,0.498,0.496,0.495,0.494,0,0,0,0,0,0,0,0.544,0.541,0.539,0.536,0.534,0.532,0.53,0.529,0.528,0.528,0.527,0.527,0.527,0.527,0.527,0.527,0.526,0.525,0.525,0.522,0.52,0.516,0.513,0.509,0.506,0.502,0.498,0.496,0.494,0.493,0.492,0.492,0.492,0.491,0.492,0.492,0.493,0.493,0.493,0.493,0.494,0.495,0,0,0,0,0,0,0,0,0,0,0,0,0,0,0,0,0,0,0,0,0,0,0,0,0,0,0,0,0,0,0,0,0,0,0,0,0,0,0,0,0,0,0,0,0,0,0,0.567,0.567,0.567,0.567,0,0.566,0.566,0.566,0.566,0,0,0,0.567,0.568,0.568,0.568,0.567,0.567,0.566,0.566,0.565,0.565,0.565,0,0,0,0,0,0,0,0,0,0,0,0,0,0,0,0,0,0,0,0,0,0,0,0,0,0,0,0,0,0,0,0,0,0,0,0,0,0,0,0,0,0,0,0,0,0,0,0,0,0,0,0,0,0,0,0,0,0,0,0,0,0,0,0,0,0,0,0,0,0,0,0,0,0,0,0,0,0,0,0,0,0,0,0,0,0,0,0,0,0,0.487,0.487,0.487,0.486,0.486,0.486,0.486,0.486,0.485,0.485,0,0,0,0,0,0,0,0,0,0,0,0,0,0,0,0,0,0,0,0,0,0,0,0,0,0,0,0,0,0,0,0,0,0,0,0,0,0,0,0,0,0,0,0,0,0,0,0,0,0,0,0,0,0,0,0,0,0,0,0.458,0.457,0.456,0.454,0.453,0.453,0.453,0.453,0.452,0.453,0.453,0.453,0.452,0.453,0.453,0.453,0.453,0.452,0.452,0.451,0.45,0.449,0.449,0.448,0.447,0.446,0.445,0.444,0.443,0.442,0.441,0.44,0.44,0.439,0.439,0.44,0.44,0.44,0.44,0.44,0.441,0.441,0.44,0.44,0.44,0.44,0.44,0.44,0.44,0.44,0.44,0.44,0.44,0.439,0.438,0.438,0.438,0.437,0.437,0.436,0.435,0.434,0.434,0.432,0.432,0.431,0.43,0.429,0.428,0.428,0.427,0.426,0.425,0,0,0.415,0.412,0.41,0.408,0.406,0.405,0.405,0.404,0.403,0.402,0.402,0.401
0,0,0,0,0,0,0,0,0,0,0,0,0,0,0,0,0,0,0,0,0,0,0,0,0,0.363,0.363,0.363,0.363,0.364,0.364,0.364,0,0.366,0.367,0,0.37,0.371,0.372,0.373,0.373,0.373,0.374,0.374,0.374,0.374,0.375,0.375,0.375,0.376,0.376,0.377,0.377,0.378,0.378,0.379,0.379,0.38,0.38,0.38,0.38,0,0.381,0.381,0.382,0.382,0,0,0,0,0,0,0.387,0.389,0.39,0.391,0.392,0.393,0.394,0,0.395,0.396,0.397,0.397,0.398,0.398,0.398,0.399,0,0,0,0,0,0,0,0,0,0,0,0,0,0,0,0,0,0,0.439,0.439,0.44,0.441,0.441,0.441,0.441,0.441,0.441,0.441,0.44,0.44,0.44,0.44,0.439,0.439,0.438,0.438,0.438,0.438,0.437,0.437,0.437,0.437,0,0,0,0.442,0.444,0.446,0.447,0.448,0.448,0.448,0.448,0.448,0.449,0.448,0.448,0.447,0.445,0.444,0.444,0.444,0.443,0.443,0.444,0.445,0.448,0.451,0.453,0.455,0.457,0.458,0.459,0.46,0.46,0.46,0.461,0.46,0.46,0.46,0.46,0.461,0.46,0.46,0.46,0.461,0.46,0.46,0.46,0.46,0.458,0.458,0,0,0,0,0,0.518,0.518,0.517,0.516,0.516,0.515,0.514,0.514,0.514,0.514,0.513,0.511,0,0,0.507,0.505,0.505,0.504,0.503,0.503,0.502,0.502,0.503,0.504,0.505,0.505,0.506,0.507,0.508,0.508,0.509,0.509,0.51,0.51,0.51,0.51,0.511,0.511,0.511,0.512,0.512,0.513,0.513,0.513,0.513,0.513,0.513,0.513,0.513,0.512,0.512,0.513,0.513,0.513,0.514,0.514,0.515,0.516,0.516,0.517,0.518,0.518,0.519,0.519,0.52,0.52,0.521,0.522,0.523,0.523,0.524,0.525,0.526,0.527,0.528,0.528,0.529,0.53,0.53,0.531,0.531,0.531,0.532,0.532,0.532,0.532,0.533,0.534,0.534,0.534,0.536,0.536,0.537,0.536,0.536,0.535,0.534,0.537,0.535,0.53,0.528,0.526,0.524,0.523,0.521,0.521,0.52,0.519,0.517,0.516,0.515,0.515,0.514,0.513,0.513,0.512,0.511,0.51,0.508,0.507,0.505,0.503,0.502,0.5,0.498,0.496,0.495,0.494,0.493,0.491,0,0,0,0,0,0,0.535,0.534,0.532,0.531,0.529,0.527,0.527,0.526,0.525,0.525,0.525,0.525,0.525,0.524,0.524,0.523,0.522,0.521,0.516,0.512,0.508,0.505,0.501,0.498,0,0.493,0.491,0.49,0.489,0.489,0.488,0.488,0.488,0.488,0.489,0.489,0.49,0.491,0.491,0.492,0,0,0,0,0,0,0,0,0,0,0,0,0,0,0,0,0,0,0,0,0,0,0,0,0,0,0,0,0,0,0,0,0,0,0,0,0,0,0,0,0,0,0,0,0,0,0,0,0.568,0.568,0.568,0.568,0.567,0.567,0.567,0.567,0,0,0,0,0.569,0.569,0.57,0.569,0,0,0.567,0.567,0,0.566,0,0,0,0,0,0,0,0,0,0,0,0,0,0,0,0,0,0,0,0,0,0,0,0,0,0,0,0,0,0,0,0,0,0,0,0,0,0,0,0,0,0,0,0,0,0,0,0,0,0,0,0,0,0,0,0,0,0,0,0,0,0,0.516,0,0,0,0,0,0,0,0,0,0,0,0,0,0,0,0,0,0,0,0,0,0,0,0,0,0,0,0,0.487,0.487,0.487,0.486,0.486,0.486,0.486,0.486,0.485,0.485,0,0,0,0,0,0,0,0,0,0,0,0,0,0,0,0,0,0,0,0,0,0,0,0,0,0,0,0,0,0,0,0,0,0,0,0,0,0,0,0,0,0,0,0,0,0,0,0,0,0,0,0,0,0,0,0,0,0,0.459,0.458,0.457,0.456,0.454,0.453,0.453,0.453,0.452,0.453,0.453,0,0,0.451,0.451,0.451,0.451,0.45,0.449,0,0.447,0.447,0.446,0.445,0,0.444,0.443,0,0.442,0.441,0.44,0.44,0.439,0.438,0.438,0.438,0.439,0.439,0.439,0.44,0.44,0.44,0.44,0.44,0.44,0.439,0.439,0.439,0.439,0.439,0.439,0.439,0.439,0.439,0.438,0.438,0.438,0.438,0.437,0.437,0.436,0.435,0.435,0.434,0.433,0.432,0.431,0.43,0.43,0.429,0.428,0.427,0.426,0.424,0,0,0,0,0.407,0.406,0.405,0.404,0.403,0.402,0.401,0.401,0.401,0.4
0,0,0,0,0,0,0,0,0,0,0,0,0,0,0,0,0,0,0,0,0,0,0,0,0,0,0.362,0.362,0.362,0.362,0.363,0.363,0.364,0.365,0.366,0.368,0.369,0.371,0.372,0.373,0.374,0.374,0.374,0.374,0.374,0.374,0.375,0.375,0.376,0.376,0.376,0.377,0.377,0.378,0.378,0.378,0.378,0.379,0.379,0.379,0,0,0.38,0.381,0.381,0,0,0,0,0,0,0.387,0.388,0.389,0.389,0.39,0.391,0.392,0.393,0.393,0.394,0.395,0.395,0.396,0.396,0.396,0.397,0.397,0,0,0,0,0,0,0,0,0,0,0,0,0,0,0,0,0,0,0.439,0.44,0.44,0.441,0.441,0.441,0.441,0.441,0.441,0.44,0.44,0.44,0.439,0.439,0.438,0.438,0.438,0.437,0.437,0.436,0.436,0.436,0.436,0.436,0.437,0.438,0.439,0.441,0.443,0.445,0.447,0.448,0.448,0.448,0.448,0.448,0.448,0.448,0.447,0.447,0.445,0.444,0.444,0.443,0.443,0.443,0.444,0.445,0.447,0.45,0.452,0.454,0.456,0.457,0.458,0.459,0.459,0.459,0.459,0.459,0.459,0.459,0.459,0.459,0.459,0.459,0.459,0.459,0.459,0.459,0.459,0.458,0.457,0.457,0,0,0,0,0,0,0,0,0,0.515,0.514,0.513,0.513,0,0,0.511,0,0,0,0,0.502,0.501,0.5,0.499,0.499,0.498,0.498,0.498,0.499,0.5,0.5,0.501,0.501,0.502,0.504,0.504,0.505,0.505,0.505,0.506,0.507,0.507,0.507,0.508,0.508,0.509,0.509,0.51,0.51,0.51,0.51,0.51,0.51,0.51,0.51,0.51,0.51,0.51,0.511,0.511,0.512,0.513,0.513,0.514,0.514,0.515,0.515,0.516,0.516,0.517,0.517,0.518,0.518,0.519,0.52,0.521,0.521,0.522,0.523,0.523,0.523,0.524,0.525,0.525,0.525,0.525,0.525,0.525,0.526,0.527,0.527,0.527,0.528,0.529,0.53,0.531,0.532,0.532,0.532,0.53,0.53,0.529,0.527,0.526,0,0,0,0.519,0.517,0.516,0.516,0.515,0.513,0,0,0.51,0.51,0.509,0.509,0.508,0.508,0.508,0.507,0.506,0.505,0.504,0.502,0.5,0.499,0.497,0.496,0.495,0.494,0.493,0.492,0,0,0,0.481,0,0,0.502,0,0.529,0.527,0.526,0.525,0.525,0.524,0.524,0.523,0.523,0.523,0.523,0.522,0.521,0.518,0.516,0.513,0.508,0.505,0.502,0,0.496,0.494,0.492,0.49,0.489,0,0.486,0.485,0.485,0.485,0.484,0.484,0.484,0.485,0,0,0,0,0,0,0,0,0,0,0,0,0,0,0,0,0,0,0,0,0,0,0,0,0,0,0,0,0,0,0,0,0,0,0,0,0,0,0,0,0,0,0,0,0,0,0,0,0,0,0,0,0,0,0,0,0,0,0,0,0,0,0,0,0,0,0,0,0,0,0,0,0,0,0,0,0,0,0,0,0,0,0,0,0,0,0,0,0,0,0,0,0,0,0,0,0,0,0,0,0,0,0,0,0,0,0,0,0,0,0,0,0,0,0,0,0,0,0,0,0,0,0,0,0,0,0,0,0,0,0,0,0,0,0,0,0,0,0,0,0,0,0,0,0,0,0,0,0,0,0,0,0,0,0,0,0,0,0,0,0,0,0,0,0,0.487,0.487,0.487,0.486,0.486,0.486,0.486,0.486,0.485,0.485,0,0,0,0,0,0,0,0,0,0,0,0,0,0,0,0,0,0,0,0,0,0,0,0,0,0,0,0,0,0,0,0,0,0,0,0,0,0,0,0,0,0,0,0,0,0,0,0,0,0,0,0,0,0,0,0,0,0.459,0.458,0,0,0,0,0,0.451,0.451,0.45,0,0,0,0,0,0.447,0.447,0.446,0,0,0,0,0,0,0,0,0,0.441,0,0.44,0.439,0.439,0.438,0.438,0.438,0.438,0.438,0.438,0.438,0.439,0.439,0.439,0.44,0.44,0.439,0.439,0.439,0.439,0.438,0.438,0.438,0.438,0.438,0.437,0.437,0.437,0.437,0.436,0.436,0.436,0.436,0.435,0.435,0.435,0.434,0.434,0.432,0.432,0.431,0.43,0.43,0.428,0,0,0,0,0,0,0,0.405,0,0.403,0.402,0.402,0.401,0.401,0.4,0.4,0.399
0,0,0,0,0,0,0,0,0,0,0,0,0,0,0,0,0,0,0,0,0,0,0,0,0,0,0.361,0.361,0.361,0.361,0.361,0.362,0.362,0.363,0.364,0.366,0.368,0.369,0.371,0.373,0.373,0.374,0.374,0.374,0.375,0.375,0.375,0.376,0.376,0.376,0.377,0.377,0.377,0.378,0.378,0.378,0.378,0.378,0.378,0,0,0.379,0.38,0.38,0.38,0,0,0,0,0,0.387,0.387,0.388,0.388,0.389,0.389,0.39,0.391,0.391,0.392,0.393,0.393,0.394,0.394,0.395,0.395,0.395,0.395,0,0,0,0,0,0,0,0,0,0,0,0,0,0,0,0,0,0,0.44,0.44,0.44,0.441,0.441,0.44,0.44,0.44,0.44,0.44,0.44,0.439,0.439,0.438,0.438,0.437,0.437,0.437,0.436,0.436,0.435,0.435,0.435,0.436,0.436,0.437,0.438,0.44,0.442,0.445,0.447,0.447,0.448,0.448,0.448,0.448,0.448,0.448,0,0,0,0.444,0.443,0.443,0.442,0.443,0.443,0.445,0.447,0.449,0.451,0.453,0.455,0.456,0.457,0.457,0.458,0.457,0.457,0.457,0.457,0.457,0.457,0.457,0.457,0.457,0.457,0.458,0.458,0.458,0.458,0.457,0.457,0.456,0,0.454,0.453,0.452,0.451,0,0,0,0,0,0,0,0,0,0,0,0,0,0,0.5,0.496,0.495,0.495,0.495,0.495,0.495,0.495,0.495,0.496,0.496,0.497,0.497,0.497,0.498,0.5,0.5,0.501,0.501,0.502,0.502,0.503,0.504,0.503,0.503,0.504,0.504,0.504,0.505,0.505,0.505,0.505,0.505,0.506,0.506,0.506,0.506,0.507,0.507,0.507,0.508,0.509,0.51,0.511,0.511,0.512,0.513,0.513,0.514,0.514,0.514,0.515,0.516,0.516,0.516,0.516,0.518,0.518,0.519,0.519,0.519,0.519,0.519,0.519,0.52,0.52,0.52,0.52,0.52,0.52,0.521,0.521,0.522,0.523,0.524,0.525,0.527,0.528,0.528,0.528,0.527,0.527,0.525,0.523,0,0,0.518,0.516,0.514,0.513,0.512,0.511,0.51,0.508,0.507,0.507,0.505,0.505,0.505,0.505,0.505,0.505,0.504,0.504,0.504,0.502,0.502,0.5,0.499,0.498,0.497,0.495,0.495,0.494,0.493,0.491,0.49,0.487,0.484,0.481,0.477,0.476,0,0,0.51,0.517,0.525,0.523,0.523,0.522,0.522,0.522,0.521,0.521,0.521,0.52,0.516,0.512,0.508,0.504,0,0,0,0,0.491,0.489,0.487,0.485,0.485,0,0.483,0.483,0.482,0.481,0.481,0.48,0.479,0.48,0.48,0,0,0,0,0,0,0,0,0,0,0,0,0,0,0,0,0,0,0,0,0,0,0,0,0,0,0,0,0,0,0,0,0,0,0,0,0,0,0,0,0,0,0,0,0,0,0,0,0,0,0,0,0,0,0,0,0,0,0,0,0,0,0,0,0,0,0,0,0,0,0,0,0,0,0,0,0,0,0,0,0,0,0,0,0,0,0,0,0,0,0,0,0,0,0,0,0,0,0,0,0,0,0,0,0,0,0,0,0,0,0,0,0,0,0,0,0,0,0,0,0,0,0,0,0,0,0,0,0,0,0,0,0,0,0,0,0,0,0,0,0,0,0,0,0,0,0,0,0,0,0,0,0,0,0,0,0,0,0,0,0,0,0,0,0.487,0.487,0,0,0,0,0.486,0.486,0.485,0,0,0,0,0,0,0,0,0,0,0,0,0,0,0,0,0,0,0,0,0,0,0,0,0,0,0,0,0,0,0,0,0,0,0,0,0,0,0,0,0,0,0,0,0,0,0,0,0,0,0,0,0,0,0,0,0,0.458,0.457,0.456,0,0,0,0,0,0,0.447,0,0,0,0,0,0,0,0,0,0,0,0,0,0,0,0,0.438,0.438,0.438,0.437,0.437,0.437,0.437,0.437,0.437,0.437,0.437,0.437,0.437,0.438,0.438,0.438,0.439,0.439,0.439,0.439,0.438,0.438,0.438,0.437,0.437,0.437,0.437,0.437,0.436,0.436,0.436,0.435,0.435,0.435,0.435,0,0,0,0,0,0,0,0,0,0,0,0,0,0,0,0,0,0,0,0,0.402,0.401,0.401,0.4,0.4,0.4,0.399,0.398,0.398
0,0,0,0,0,0,0,0,0,0,0,0,0,0,0,0,0,0,0,0,0,0,0,0,0,0,0,0.36,0.36,0.36,0.36,0.361,0.361,0.362,0,0,0.366,0.368,0.37,0.372,0.373,0.374,0.374,0.375,0.375,0.375,0.376,0.376,0.376,0.377,0.377,0.377,0.377,0.377,0.378,0.378,0.378,0.377,0.378,0.378,0.378,0.378,0.378,0.379,0.379,0.38,0.38,0.382,0.383,0.386,0.387,0.387,0.388,0.388,0.389,0.389,0.389,0.39,0.39,0.391,0.391,0.391,0.392,0.393,0.393,0.393,0.393,0.393,0.393,0,0,0,0,0,0,0,0,0,0,0,0,0,0,0,0,0,0,0,0,0.44,0.44,0.44,0.44,0.44,0.439,0.439,0.439,0.438,0.438,0.438,0.437,0.437,0.436,0.436,0.435,0.435,0.434,0.435,0.434,0.435,0.436,0.437,0.437,0.439,0,0,0,0,0.447,0.447,0.447,0.447,0.447,0.447,0,0,0,0,0,0,0.443,0.443,0.443,0.445,0,0,0,0.452,0.453,0.454,0.455,0.455,0.455,0.455,0.455,0.455,0.454,0.454,0.454,0.454,0.455,0.455,0.456,0.456,0.457,0.457,0.457,0.457,0.456,0.455,0.454,0.453,0.453,0.451,0.451,0.45,0.45,0.449,0.449,0.448,0,0,0,0,0,0,0,0,0,0.493,0.491,0.488,0.489,0.49,0.492,0.492,0.492,0.493,0.493,0.494,0.495,0.495,0.496,0.496,0.497,0.498,0.498,0.499,0.5,0.5,0.5,0.5,0.5,0.5,0.499,0.499,0.5,0.5,0.5,0.5,0.5,0.501,0.501,0.501,0.501,0.501,0.502,0.502,0.503,0.504,0.504,0.505,0.506,0.507,0.508,0.508,0.51,0.51,0.511,0.512,0.512,0.513,0.513,0.513,0.514,0.514,0.514,0.514,0.514,0.514,0.514,0.514,0.514,0.514,0.514,0.514,0.514,0.514,0.515,0.516,0.517,0.518,0.519,0.52,0.521,0.523,0.525,0.526,0.525,0.525,0.524,0,0.516,0.515,0.509,0.505,0.512,0.51,0,0.507,0.507,0.505,0.504,0.503,0.502,0.501,0.501,0.501,0.501,0.501,0.501,0.501,0.501,0.501,0.5,0.5,0.498,0.497,0.496,0.496,0.495,0.494,0.493,0.492,0.491,0,0,0.484,0.48,0.477,0.475,0.473,0.472,0,0.496,0.513,0.518,0.522,0.52,0.52,0.521,0.52,0.518,0.51,0.507,0,0,0,0,0.497,0.495,0.492,0.49,0.488,0.485,0.483,0.482,0.482,0,0.48,0.479,0.478,0.478,0.477,0.476,0.475,0.474,0,0,0,0,0,0,0,0,0,0,0,0,0,0,0,0,0,0,0,0,0,0,0,0,0,0,0,0,0,0,0,0,0,0,0,0,0,0,0,0,0,0,0,0,0,0,0,0,0,0,0,0,0,0,0,0,0,0,0,0,0,0,0,0,0,0,0,0,0,0,0,0,0,0,0.476,0.477,0.477,0.478,0.478,0.478,0,0,0,0,0,0,0,0,0,0,0,0,0,0,0,0,0,0,0,0,0,0,0,0,0,0,0,0,0,0,0,0,0,0,0,0,0,0,0,0,0.497,0.498,0,0,0,0,0,0,0,0,0,0,0,0,0,0,0,0,0,0,0,0,0,0,0,0,0,0,0,0,0,0,0,0,0,0,0,0,0,0,0,0,0,0,0,0.486,0.486,0.487,0,0,0,0.486,0.485,0.484,0,0,0,0,0,0,0,0,0,0,0,0,0,0,0,0,0,0,0,0,0,0,0,0,0,0,0,0,0,0,0,0,0,0,0,0,0,0,0,0,0,0,0,0,0,0,0,0,0,0,0,0,0,0,0,0,0.457,0,0,0,0,0,0,0,0,0,0,0,0,0,0,0,0,0,0,0.438,0.438,0,0,0.436,0.436,0.436,0.435,0.436,0.436,0.436,0.435,0.435,0.435,0.435,0.435,0.435,0.435,0.436,0.436,0.437,0.437,0.438,0.438,0.438,0.438,0.438,0.438,0.438,0.437,0.437,0.437,0.436,0.436,0.435,0.435,0.435,0.435,0.435,0.434,0.434,0.434,0.434,0,0,0,0,0,0,0,0,0,0,0,0,0,0,0,0,0,0,0,0,0.4,0.4,0.4,0.399,0.399,0.398,0.398,0.397,0.397
0,0,0,0,0,0,0,0,0,0,0,0,0,0,0,0,0,0,0,0,0,0,0,0,0,0,0,0.36,0.359,0.36,0.36,0.36,0.36,0.36,0.361,0,0,0,0,0.371,0.372,0.373,0.375,0.375,0.376,0.376,0.376,0.376,0.377,0.377,0.377,0.377,0.377,0.378,0.378,0.378,0.377,0.377,0.377,0.377,0.376,0.376,0.376,0.376,0.377,0.377,0.378,0.38,0.382,0.385,0.387,0.387,0.387,0.388,0.388,0.388,0.389,0.389,0.389,0.39,0.39,0.39,0.391,0.391,0.391,0.391,0.391,0.391,0.391,0,0,0,0,0,0,0,0,0,0,0,0,0,0,0,0,0,0,0,0,0,0.44,0.439,0.439,0.438,0.438,0.438,0.438,0.438,0.437,0.437,0.436,0.436,0.435,0.435,0.434,0.434,0.434,0.434,0.434,0.434,0.435,0.436,0.437,0.438,0.44,0,0,0,0,0.446,0.446,0.446,0.446,0.445,0.444,0,0,0,0,0,0,0.442,0.443,0.445,0,0,0,0.452,0.453,0.453,0.453,0.453,0.453,0.453,0.453,0.452,0.452,0.452,0.452,0.452,0.453,0.453,0.454,0.455,0.455,0.456,0.456,0.455,0.455,0.454,0.453,0.453,0.452,0.451,0.45,0.45,0.45,0.449,0.449,0.448,0.448,0.447,0.447,0.447,0.447,0,0,0,0,0,0,0.483,0.485,0.486,0.488,0.489,0.49,0.49,0.492,0.492,0.493,0.493,0.494,0.495,0.495,0.496,0.497,0.497,0.497,0.497,0.497,0.496,0.496,0.496,0.495,0.494,0.495,0.494,0.494,0.494,0.495,0.495,0.495,0.496,0.497,0.497,0.497,0.497,0.498,0.499,0.5,0.501,0.501,0.502,0.503,0.504,0.505,0.506,0.507,0.507,0.508,0.509,0.51,0.51,0.51,0.511,0.511,0.511,0.511,0.51,0.51,0.51,0.509,0.509,0.509,0.51,0.51,0.51,0.51,0.511,0.513,0.513,0.513,0.516,0.514,0.519,0.522,0.522,0.518,0,0,0.508,0.508,0.507,0.507,0.508,0.506,0.505,0.504,0.502,0.501,0.501,0.5,0.499,0.498,0.498,0.498,0.497,0.498,0.499,0.499,0.499,0.499,0.499,0.499,0.498,0.497,0.496,0.496,0.495,0.494,0.493,0.493,0.491,0.49,0.488,0,0.482,0,0.475,0.474,0.472,0.469,0.467,0.465,0.466,0,0,0,0.46,0.462,0.463,0.464,0.465,0.469,0.473,0.481,0,0,0.486,0.487,0.486,0.485,0.483,0.481,0.479,0.478,0.478,0.477,0.476,0.475,0.475,0.474,0.474,0.472,0.471,0.47,0,0,0,0,0,0,0,0,0,0,0,0,0,0,0,0,0,0,0,0,0,0,0,0,0,0,0,0,0,0,0,0,0,0,0,0,0,0,0,0,0,0,0,0,0,0,0,0,0,0,0,0,0,0,0,0,0,0,0,0,0,0,0,0,0,0,0,0,0,0,0,0,0,0.476,0.476,0.477,0.477,0.477,0.477,0.478,0.478,0.479,0,0,0,0,0,0,0,0,0,0,0,0,0,0,0,0,0,0,0,0,0,0,0,0,0,0,0,0,0,0,0,0,0,0,0,0.495,0.496,0.497,0.498,0.499,0.501,0,0,0.504,0,0,0,0,0,0,0,0,0,0,0,0,0,0,0,0,0,0,0,0,0,0,0,0,0,0,0,0,0,0,0,0,0,0,0,0,0,0,0,0,0,0,0,0,0,0,0,0,0,0,0,0,0,0,0,0,0,0,0,0,0,0,0,0,0,0,0,0,0,0,0,0,0,0,0,0,0,0,0,0,0,0,0,0,0,0,0,0,0,0,0,0,0,0,0,0,0,0,0,0,0,0,0,0,0,0,0,0,0,0,0,0,0,0,0,0,0,0,0,0,0,0,0.436,0.435,0,0,0,0,0.433,0.433,0.433,0.434,0.434,0.434,0.434,0.434,0.434,0.434,0.434,0.434,0.434,0.435,0.435,0.435,0.436,0.437,0.437,0.437,0.437,0.437,0.437,0.436,0.436,0.435,0.435,0.435,0.434,0.434,0.434,0.434,0.432,0.432,0.432,0.432,0.43,0.429,0,0,0,0,0,0,0,0,0,0,0,0,0,0,0,0,0,0,0.399,0,0.398,0.398,0.398,0.398,0.397,0.397,0.396,0.396,0.395
0,0,0,0,0,0,0,0,0,0,0,0,0,0,0,0,0,0,0,0,0,0,0,0,0,0,0,0.359,0.359,0.359,0.359,0.359,0.359,0.359,0.36,0,0,0,0.367,0.37,0.371,0.373,0.374,0.375,0.376,0.376,0.376,0.377,0.377,0.377,0.378,0.378,0.378,0.378,0.378,0.378,0.378,0.377,0.377,0.377,0.376,0.376,0.376,0.375,0.377,0.377,0,0.381,0,0,0,0.387,0.387,0.388,0.388,0.388,0.389,0.389,0.389,0.389,0.389,0.389,0.39,0.39,0.39,0.39,0.39,0.39,0.39,0.391,0.391,0,0,0,0,0,0,0,0,0,0,0,0,0,0,0,0,0,0,0,0,0,0.438,0.438,0.438,0.438,0.438,0.437,0.437,0.436,0.435,0.435,0.435,0.434,0.434,0.434,0.433,0.433,0.433,0.434,0.434,0.435,0.436,0.437,0.438,0.441,0,0,0,0,0.444,0.444,0.444,0.444,0.443,0.442,0,0,0,0,0,0,0,0,0.447,0,0.451,0.451,0.451,0.451,0.451,0.451,0.451,0.451,0.451,0.45,0.45,0.45,0.45,0.45,0.451,0.451,0.452,0.453,0.454,0.454,0.454,0.454,0.454,0.453,0.452,0.452,0.451,0.45,0.45,0.45,0.449,0.449,0.449,0.448,0.448,0.447,0.447,0.447,0.446,0.446,0.446,0,0,0,0,0,0.483,0.484,0.484,0.488,0.488,0.489,0.489,0.49,0.491,0.492,0.492,0.492,0.493,0.493,0.493,0.493,0.493,0.493,0.493,0.492,0.491,0.491,0.49,0.489,0.489,0.489,0.488,0.489,0.489,0.49,0.49,0.491,0.492,0.492,0.492,0.493,0.493,0.495,0.495,0.496,0.496,0.497,0.498,0.499,0.5,0.501,0.501,0.502,0.503,0.504,0.504,0.505,0.506,0.507,0.507,0.507,0.507,0.507,0.507,0.505,0.505,0.505,0.505,0.505,0.505,0.505,0.506,0.507,0.508,0.51,0.51,0.51,0.51,0.508,0.509,0.504,0,0.501,0,0.5,0.5,0.501,0.502,0.501,0.5,0.499,0.498,0,0,0.497,0.496,0.496,0.496,0.495,0.495,0.496,0.496,0.497,0.497,0.497,0.497,0.497,0.497,0.497,0.496,0.496,0.495,0.494,0.493,0.492,0.49,0.489,0.486,0.484,0.48,0.477,0.475,0,0.471,0.47,0.467,0.465,0.463,0.461,0.46,0.459,0.459,0.459,0.46,0.461,0.462,0.463,0.466,0.471,0.476,0,0,0,0.483,0.482,0.48,0.479,0.477,0.475,0.474,0.474,0.473,0.473,0.472,0.471,0.471,0.471,0.469,0.468,0,0.466,0.465,0.463,0.461,0,0,0,0,0,0,0,0,0,0,0,0,0,0,0,0,0,0,0,0,0,0,0,0,0,0,0,0,0,0,0,0,0,0,0,0,0,0,0,0,0,0,0,0,0,0,0,0,0,0,0,0,0,0,0,0,0,0,0,0,0,0,0,0,0,0,0,0,0.475,0.475,0.476,0.476,0.476,0.476,0.477,0.477,0.478,0.479,0,0,0,0,0,0,0,0,0,0,0,0,0,0,0,0,0,0,0,0,0,0,0,0,0,0,0,0,0,0,0,0,0,0.491,0.493,0.494,0.496,0.497,0.498,0.5,0.501,0.502,0.503,0.505,0.507,0,0,0,0,0,0,0,0,0,0,0,0,0,0,0,0,0,0,0,0,0,0,0,0,0,0,0,0,0,0,0,0,0,0,0,0,0,0,0,0,0,0,0,0,0,0,0,0,0,0,0,0,0,0,0,0,0,0,0,0,0,0,0,0,0,0,0,0,0,0,0,0,0,0,0,0,0,0,0,0,0,0,0,0,0,0,0,0,0,0,0,0,0,0,0,0,0,0,0,0,0,0,0,0,0.447,0,0,0,0,0,0.44,0.439,0,0,0.438,0.438,0.438,0.437,0.436,0.435,0.435,0.434,0.433,0.433,0.432,0.432,0.431,0.431,0.431,0.432,0.432,0.432,0.432,0.432,0.432,0.432,0.432,0.432,0.433,0.433,0.433,0.433,0.433,0.433,0.433,0.433,0.433,0.432,0.433,0.432,0.432,0.432,0.432,0.432,0.432,0.432,0.432,0.431,0.431,0.43,0.43,0.428,0.428,0.427,0,0.422,0.42,0.417,0,0,0,0,0,0,0,0,0,0,0,0,0.398,0.397,0.398,0.397,0.397,0.397,0.397,0.396,0.396,0.395,0.395,0.395,0.394,0.394
0,0,0,0,0,0,0,0,0,0,0,0,0,0,0,0,0,0,0,0,0,0,0,0,0,0,0,0.358,0.358,0.358,0.358,0.358,0.357,0.357,0.358,0.359,0.361,0.363,0,0.368,0.37,0.372,0.374,0.375,0.376,0.377,0.377,0.377,0.378,0.378,0.378,0.378,0.378,0.378,0.378,0.378,0.378,0.378,0.378,0.378,0.377,0.376,0.376,0.376,0,0,0,0,0,0,0.386,0.387,0.387,0.388,0.388,0.388,0.388,0.389,0.389,0.389,0.389,0.389,0.389,0.389,0.39,0.39,0.389,0.39,0.39,0.39,0.39,0.39,0,0,0,0,0,0,0,0,0,0,0,0,0,0,0,0,0,0,0.438,0.438,0.438,0.438,0.437,0.437,0.437,0.437,0.436,0.436,0.435,0.435,0.434,0.434,0.433,0.433,0.433,0.433,0.433,0.433,0.434,0.435,0.435,0.436,0.437,0.439,0.44,0,0,0,0,0.442,0.442,0.442,0.44,0.44,0.439,0,0,0,0,0,0,0,0.446,0.449,0.45,0.45,0.45,0,0.449,0.45,0.449,0.449,0.448,0.448,0.447,0.448,0.448,0.448,0.449,0.45,0.451,0.451,0.452,0.453,0.453,0.453,0.453,0.452,0.451,0.451,0.45,0.45,0.449,0.449,0.449,0.449,0.448,0.448,0.448,0.448,0.447,0.447,0.446,0.446,0.446,0.447,0.451,0.455,0,0,0.477,0.479,0.481,0.486,0.486,0.486,0.486,0.487,0.488,0.488,0.488,0.489,0.489,0.489,0.49,0.49,0.49,0.49,0.489,0.489,0.488,0.486,0.485,0.485,0.484,0.483,0.483,0.483,0.484,0.484,0.485,0,0.487,0.488,0.488,0.489,0.489,0.49,0,0.491,0.491,0.492,0.492,0.493,0.494,0.495,0,0.497,0.498,0.499,0.499,0.5,0.501,0.502,0.502,0.503,0.503,0.502,0.5,0.5,0.499,0.499,0.5,0.5,0.5,0.5,0.501,0.502,0.504,0.506,0.504,0.502,0.5,0.496,0,0,0,0.479,0,0,0.494,0.496,0,0.497,0,0,0,0,0,0,0.495,0.495,0.494,0.495,0.495,0.495,0.495,0.496,0.497,0.497,0.497,0.497,0.497,0.496,0.496,0.495,0.495,0.494,0.492,0.489,0.486,0.484,0.481,0.478,0.476,0.474,0.472,0.47,0,0.467,0.465,0.464,0.462,0.46,0.459,0.458,0.458,0.458,0.459,0.46,0.461,0.462,0.464,0.47,0,0,0.476,0.476,0.476,0.476,0,0.475,0.474,0.472,0.472,0.471,0.471,0.47,0.469,0.469,0.468,0.468,0.466,0.465,0.464,0.464,0.462,0.46,0.459,0,0,0,0,0,0,0,0,0,0,0,0,0,0,0,0,0,0,0,0,0,0,0,0,0,0,0,0,0,0,0,0,0,0,0,0,0,0,0,0,0,0,0,0,0,0,0,0,0,0,0,0,0,0,0,0,0,0,0,0,0,0,0,0,0,0,0,0,0.472,0.473,0.474,0.475,0.476,0.477,0.477,0,0,0,0,0,0,0,0,0,0,0,0,0,0,0,0,0,0,0,0,0,0,0,0,0,0,0,0,0,0,0,0,0,0,0,0.491,0.491,0.493,0.494,0.496,0.497,0.498,0.5,0.501,0.502,0.504,0.505,0.507,0.508,0,0,0,0,0,0,0,0,0,0,0,0,0,0,0,0,0,0,0,0,0,0,0,0,0,0,0,0,0,0,0,0,0,0,0,0,0,0,0,0,0,0,0,0,0,0,0,0,0,0,0,0,0,0,0,0,0,0,0,0,0,0,0,0,0,0,0,0,0,0,0,0,0,0,0,0,0,0,0,0,0,0,0,0,0,0,0,0,0,0,0,0,0,0,0,0,0,0,0,0,0,0,0,0,0,0,0,0.44,0.439,0.438,0.438,0.438,0,0.437,0.437,0.436,0.435,0.434,0.434,0.433,0.432,0.432,0.432,0.431,0.431,0.431,0.431,0.43,0.431,0.431,0.431,0.431,0.431,0.431,0.431,0.431,0.431,0.43,0.43,0.43,0.429,0.429,0.429,0.429,0.428,0.428,0.428,0.427,0.427,0.428,0.428,0.428,0.428,0.429,0.429,0.43,0.429,0.428,0.427,0.426,0.424,0.423,0.421,0.418,0.416,0,0.409,0,0,0,0,0,0,0,0,0,0,0.396,0.397,0.397,0.397,0.397,0.397,0.396,0.396,0.395,0.395,0.395,0.394,0.394,0.393,0.393,0.393
0,0,0,0,0,0,0,0,0,0,0,0,0,0,0,0,0,0,0,0,0,0,0,0,0,0,0,0,0,0.356,0.356,0.356,0.356,0.356,0.356,0.357,0.358,0.36,0.362,0,0.367,0.37,0.372,0.374,0.376,0.377,0.377,0.377,0.378,0.378,0.378,0.379,0.379,0.379,0.379,0.379,0.379,0.378,0.379,0.378,0.377,0.377,0.376,0.376,0,0,0,0,0,0,0,0,0,0,0.388,0.388,0.389,0.389,0.389,0.389,0.389,0.389,0.389,0.389,0.39,0.389,0.39,0.39,0.39,0.39,0.39,0,0,0,0,0,0,0,0,0,0,0,0,0,0,0,0,0,0,0,0.438,0.437,0.437,0.437,0.437,0.437,0.437,0.436,0.436,0.435,0.435,0.434,0.434,0.433,0.433,0.432,0.432,0.432,0.433,0.433,0.434,0.434,0.434,0.435,0.436,0.437,0.438,0.438,0.438,0.439,0,0,0,0.439,0.438,0.437,0.436,0,0,0,0,0,0,0,0,0,0.449,0.449,0.449,0,0.447,0.447,0.446,0.446,0.446,0.445,0.445,0.445,0.445,0.446,0.447,0.448,0.448,0.449,0.451,0.451,0.451,0.451,0.451,0.451,0.45,0.45,0.45,0.449,0.449,0.449,0.449,0.448,0.448,0.448,0.448,0.447,0.447,0.446,0.446,0.446,0.446,0.446,0.446,0.451,0.453,0,0,0,0.47,0.481,0.481,0.48,0.481,0.482,0.483,0.483,0.483,0.483,0.483,0,0.484,0.484,0.484,0.484,0.484,0.483,0.482,0.481,0.48,0.479,0.479,0.478,0.478,0.478,0.479,0.479,0.48,0.481,0.482,0.483,0.483,0.484,0.485,0.485,0.486,0.486,0.486,0.487,0.487,0.488,0.489,0.49,0.491,0.492,0.493,0.494,0.495,0.496,0.497,0.498,0.498,0.499,0.496,0.495,0.495,0.494,0.493,0.493,0.494,0.495,0.495,0.495,0.496,0.497,0.496,0.495,0.494,0,0,0,0.474,0.472,0.473,0.474,0.475,0,0,0,0,0,0,0,0,0,0,0,0,0.493,0.493,0.493,0.494,0.494,0.495,0.495,0.496,0.496,0.496,0.496,0.496,0.496,0.495,0.495,0.493,0.492,0.485,0.483,0.481,0.479,0.476,0.474,0.473,0,0.47,0.468,0.467,0.467,0.465,0.464,0.462,0.46,0.459,0.458,0.458,0.457,0.458,0.459,0.46,0.461,0.463,0,0,0,0.472,0.472,0.473,0.473,0,0.473,0.472,0.471,0.47,0.469,0.468,0.468,0.467,0.466,0.465,0.465,0.464,0.463,0.462,0.461,0.46,0.459,0.457,0,0,0,0,0,0,0,0,0,0,0,0,0,0,0,0,0,0,0,0,0,0,0,0,0,0,0,0,0,0,0,0,0,0,0,0,0,0,0,0,0,0,0,0,0,0,0,0,0,0,0,0,0,0,0,0,0,0,0,0,0,0,0,0,0,0,0,0,0.472,0.473,0.474,0.475,0.475,0.476,0.477,0.477,0.478,0.479,0,0,0,0,0,0,0,0,0,0,0,0,0,0,0,0,0,0,0,0,0,0,0,0,0,0,0,0,0,0,0,0,0.491,0.491,0.493,0.494,0,0,0.498,0.5,0.501,0.502,0.504,0.505,0.507,0.508,0,0,0,0,0,0,0,0,0,0,0,0,0,0,0,0,0,0,0,0,0,0,0,0,0,0,0,0,0,0,0,0,0,0,0,0,0,0,0,0,0,0,0,0,0,0,0,0,0,0,0,0,0,0,0,0,0,0,0,0,0,0,0,0,0,0,0,0,0,0,0,0,0,0,0,0,0,0,0,0,0,0,0,0,0,0,0,0,0,0,0,0,0,0,0,0,0,0,0,0,0,0,0,0,0,0,0.439,0.438,0.438,0.437,0.437,0.437,0.436,0.436,0.435,0.435,0.434,0.433,0.433,0.432,0.432,0.431,0.431,0.431,0.43,0.43,0.429,0.429,0.429,0.429,0.429,0.429,0.429,0.429,0.429,0.429,0.428,0.428,0.427,0.427,0.426,0.426,0.425,0.425,0.425,0.424,0.424,0.424,0.424,0.424,0.425,0.425,0.426,0.426,0.427,0.427,0.426,0.425,0,0,0,0.419,0.416,0,0,0,0,0.403,0,0,0,0,0,0,0,0.396,0.396,0.396,0.396,0.396,0.396,0.395,0.395,0.395,0.395,0.394,0.394,0.393,0,0.393,0.392,0.392,0.392
0,0,0,0,0,0,0,0,0,0,0,0,0,0,0,0,0,0,0,0,0,0,0,0,0,0,0,0,0,0.355,0.355,0.355,0.354,0.354,0.354,0.355,0.356,0.357,0.359,0,0,0.367,0.371,0.373,0.375,0.376,0.377,0.377,0.377,0.378,0.378,0.378,0.379,0.379,0.379,0.379,0.379,0.379,0.379,0.378,0.378,0,0.377,0.377,0.377,0.374,0,0,0,0,0,0,0,0,0.389,0.389,0.389,0.389,0.389,0.389,0.389,0.389,0.389,0.389,0.39,0.389,0.39,0.39,0.39,0.39,0.39,0,0,0,0,0,0,0,0,0,0,0,0,0,0,0,0,0,0,0,0.437,0.437,0.437,0.436,0.436,0.436,0.436,0.435,0.435,0.434,0.434,0.434,0.434,0.433,0.433,0.432,0.432,0.432,0.432,0.433,0.433,0.434,0.434,0.434,0.435,0.436,0,0.436,0.436,0.436,0.436,0.436,0.436,0,0,0.434,0.433,0,0.432,0,0,0,0,0,0,0,0,0,0,0,0,0.444,0.444,0.443,0.443,0.442,0.442,0.442,0.443,0.443,0.444,0.445,0.446,0.448,0.449,0.45,0.45,0.45,0.45,0.449,0.449,0.449,0.448,0.448,0.448,0.448,0.448,0.448,0.448,0.448,0.447,0.447,0.446,0.446,0.446,0.446,0.446,0.446,0.446,0.446,0.447,0.45,0,0.459,0.462,0.466,0,0.471,0.473,0.476,0.477,0.478,0.478,0.478,0.478,0,0.479,0.479,0.478,0,0.478,0.478,0.477,0.476,0.476,0.475,0.474,0.474,0.474,0.474,0.475,0.475,0.476,0.476,0.477,0.478,0.479,0.479,0.48,0.48,0.481,0.481,0.482,0.482,0.482,0.483,0.484,0.484,0.485,0.486,0.488,0.489,0.49,0.49,0.491,0.49,0.49,0.49,0.489,0.488,0.488,0.488,0.488,0.489,0.49,0.491,0.492,0.493,0.493,0.494,0.493,0.491,0,0,0,0,0.469,0.465,0.467,0.467,0.47,0,0,0,0,0,0,0,0,0,0,0,0,0,0.493,0.493,0.493,0.493,0.494,0.494,0.495,0.495,0.495,0.495,0.495,0.495,0.494,0.491,0.488,0.485,0.481,0.479,0.476,0,0,0.471,0.47,0.469,0.468,0.467,0.466,0.465,0.464,0.463,0.461,0.46,0.459,0.458,0.458,0.457,0.457,0.458,0.459,0.46,0.461,0.464,0.466,0,0,0,0.471,0.472,0.472,0.472,0.471,0.469,0.468,0.467,0.466,0.466,0.465,0.464,0.463,0.462,0.461,0.46,0.46,0.46,0.459,0.458,0.457,0.455,0.455,0.454,0.453,0.452,0,0,0,0,0,0,0,0,0,0,0,0,0,0,0,0,0,0,0,0,0,0,0,0,0,0,0,0,0,0,0,0,0,0,0,0,0,0,0,0,0,0,0,0,0,0,0,0,0,0,0,0,0,0,0,0,0,0,0,0,0,0,0,0.471,0.472,0,0,0,0.476,0.476,0.477,0.478,0.479,0,0,0,0,0,0,0,0,0,0,0,0,0,0,0,0,0,0,0,0,0,0,0,0,0,0,0,0,0,0,0,0,0.492,0.492,0,0,0.496,0.497,0.499,0.5,0.502,0.503,0.504,0.505,0.507,0.508,0,0,0,0,0,0,0,0,0,0,0,0,0,0,0,0,0,0,0,0,0,0,0,0,0,0,0,0,0,0,0,0,0,0,0,0,0,0,0,0,0,0,0,0,0,0,0,0,0,0,0,0,0,0,0,0,0,0,0,0,0,0,0,0,0,0,0,0,0,0,0,0,0,0,0,0,0,0,0,0,0,0,0,0,0,0,0,0,0,0,0,0,0,0,0,0,0,0,0,0,0,0,0,0,0,0.438,0.438,0.437,0.436,0.435,0.434,0.434,0.434,0.434,0.433,0.432,0.432,0.432,0.432,0.432,0.432,0.431,0.43,0.43,0.429,0.428,0.428,0.428,0.427,0.428,0.427,0.427,0.427,0.427,0.426,0.426,0.425,0.425,0.424,0.424,0.424,0.423,0.423,0.422,0.422,0.422,0.421,0.421,0.421,0.422,0.422,0.423,0.423,0.424,0.424,0.423,0,0,0.42,0,0,0,0.413,0.411,0,0,0.404,0.402,0,0.399,0,0,0,0,0.395,0.395,0.395,0.395,0.395,0.395,0.395,0.394,0.394,0.394,0.393,0.393,0.392,0.392,0.392,0.391,0.391,0.39,0.39
0,0,0,0,0,0,0,0,0,0,0,0,0,0,0,0,0,0,0,0,0,0,0,0,0,0,0,0,0,0,0.353,0.353,0.353,0.353,0.353,0.353,0.354,0.355,0.356,0.358,0,0,0,0,0.372,0.374,0.375,0.376,0.377,0.377,0.378,0.378,0.378,0.378,0.378,0.379,0.379,0.379,0.379,0.379,0.378,0,0,0,0.377,0,0,0,0,0,0,0,0,0,0.388,0.389,0.389,0.389,0.389,0.389,0.39,0.389,0.39,0.389,0.389,0.39,0.39,0.39,0.39,0.39,0.39,0,0,0,0,0,0,0,0,0,0,0,0,0,0,0,0,0,0,0,0.437,0.437,0.436,0.436,0.435,0.435,0.435,0.435,0.434,0.434,0.434,0.433,0.433,0.432,0.432,0.432,0.432,0.432,0.432,0.432,0.432,0.433,0.433,0.433,0.434,0.434,0.434,0.434,0.434,0.434,0.434,0.434,0.433,0.433,0,0,0.431,0.43,0.43,0,0,0,0,0,0,0,0,0,0.445,0,0.442,0.442,0.441,0.44,0.44,0.44,0.439,0.439,0.44,0.441,0.442,0.444,0.445,0.446,0.448,0.448,0.449,0.448,0.448,0.448,0.447,0.447,0.446,0.446,0.446,0.447,0.447,0.447,0.447,0.448,0.448,0.447,0.447,0.446,0.446,0.446,0.446,0.445,0.445,0.445,0.446,0.446,0.446,0.45,0.449,0.46,0.463,0.465,0.467,0.47,0.471,0.471,0.472,0,0.473,0.473,0.473,0.473,0.472,0.472,0.472,0.472,0.472,0.471,0.471,0.47,0.47,0.47,0.47,0.47,0.471,0.471,0.471,0.472,0.472,0.473,0.473,0.474,0.475,0.475,0.476,0.476,0.477,0.477,0.477,0.478,0.478,0.479,0.48,0.481,0.482,0.483,0.484,0.484,0.485,0.484,0.483,0,0,0.482,0.481,0.482,0.482,0.483,0.485,0.487,0.487,0.487,0.487,0.487,0,0,0,0,0.46,0.46,0.46,0.458,0.456,0.455,0.455,0,0,0,0,0,0,0,0,0,0,0,0,0,0,0.493,0.493,0.493,0.493,0.494,0.494,0.495,0.494,0.494,0,0,0.489,0.481,0.478,0,0,0,0,0.464,0.468,0.467,0.467,0.466,0.466,0.466,0.465,0.464,0.463,0.462,0.46,0.459,0.458,0.458,0.457,0.457,0.457,0.457,0.458,0.458,0.46,0.462,0.464,0.466,0,0.469,0.47,0.471,0.471,0.47,0.469,0.468,0.466,0.466,0.465,0.464,0.464,0.462,0.461,0.461,0.46,0.46,0.459,0.458,0.457,0.457,0.456,0.455,0.454,0.454,0.453,0.452,0.452,0.451,0.451,0,0,0,0,0,0,0,0,0,0,0,0,0,0,0,0,0,0,0,0,0,0,0,0,0,0,0,0,0,0,0,0,0,0,0,0,0,0,0,0,0,0,0,0,0,0,0,0,0,0,0,0,0,0,0,0,0,0,0,0,0.471,0,0,0,0,0.475,0.476,0.477,0.478,0.478,0,0,0,0,0,0,0,0,0,0,0,0,0,0,0,0,0,0,0,0,0,0,0,0,0,0,0,0,0,0,0,0,0.492,0.492,0,0,0,0,0.5,0.502,0.503,0.504,0,0.506,0.507,0.508,0,0,0,0,0,0,0,0,0,0,0,0,0,0,0,0,0,0,0,0,0,0,0,0,0,0,0,0,0,0,0,0,0,0,0,0,0,0,0,0,0,0,0,0,0,0,0,0,0,0,0,0,0,0,0,0,0,0,0,0,0,0,0,0,0,0,0,0,0,0,0,0,0,0,0,0,0,0,0,0,0,0,0,0,0,0,0,0,0,0,0,0,0,0,0,0,0,0,0,0,0,0,0,0,0,0.435,0.435,0.434,0.433,0.432,0.431,0.43,0.43,0.43,0.43,0.429,0.429,0.43,0.431,0.431,0.431,0.431,0.43,0,0,0.427,0.427,0.426,0.425,0.425,0.425,0.425,0.425,0.424,0.424,0.423,0.423,0.422,0.422,0,0.421,0.42,0.42,0.42,0.419,0.419,0.419,0.419,0.419,0.419,0.419,0,0.42,0.42,0.42,0.419,0,0,0,0.414,0.413,0,0,0.408,0.407,0,0,0.401,0.4,0.399,0.398,0.397,0,0.395,0.395,0.395,0.395,0.394,0.394,0.394,0.394,0.393,0.393,0.393,0.392,0.392,0.391,0.391,0.39,0.39,0.389,0.388,0.388
0,0,0,0,0,0,0,0,0,0,0,0,0,0,0,0,0,0,0,0,0,0,0,0,0,0,0,0,0,0,0,0.351,0.351,0.352,0.351,0.352,0.352,0.353,0.354,0.355,0.357,0,0,0,0.37,0.372,0.374,0.375,0.376,0.376,0.377,0.377,0.378,0.378,0.378,0.378,0.378,0.378,0.379,0.378,0.378,0.377,0.377,0,0,0,0,0,0,0,0,0,0,0.387,0.388,0.389,0.389,0.389,0.389,0.389,0.389,0.39,0.39,0.39,0.389,0.39,0.39,0.39,0.389,0.39,0,0,0,0,0,0,0,0,0,0,0,0,0,0,0,0,0,0,0.437,0.437,0.437,0.437,0.436,0.435,0.435,0.435,0.434,0.434,0.434,0.433,0.433,0.432,0.432,0.432,0.432,0.431,0.431,0.43,0.43,0.43,0.429,0.429,0.429,0.429,0.43,0.43,0.431,0.431,0.431,0.432,0.431,0.431,0.431,0.431,0.43,0.429,0.428,0.428,0.428,0.428,0.428,0.429,0,0,0,0,0,0.444,0,0.442,0.44,0.439,0.438,0.438,0.438,0.437,0.437,0.437,0.438,0.439,0.44,0.442,0.443,0.444,0.446,0.446,0.447,0.447,0.446,0.446,0.445,0.444,0.444,0.444,0.444,0.445,0.446,0.446,0.447,0.447,0.447,0.447,0.447,0.446,0.446,0.446,0.446,0.446,0.445,0.445,0.446,0.446,0.446,0.447,0.448,0.453,0.457,0.46,0.461,0.464,0.465,0.465,0.466,0.467,0.467,0.468,0.468,0.468,0.468,0.467,0.467,0.467,0.467,0.466,0.466,0.466,0.466,0.466,0.466,0.466,0.467,0.467,0.468,0.468,0.469,0.469,0.47,0.47,0.471,0.472,0.472,0.472,0.472,0.472,0.472,0.473,0.473,0.474,0.475,0.476,0.477,0.478,0.478,0.478,0.479,0.478,0.477,0.477,0.476,0.472,0.474,0,0.477,0.478,0.48,0.482,0.483,0.482,0.482,0,0,0,0.458,0.458,0.455,0.455,0.456,0.453,0.45,0,0,0,0.429,0,0,0.42,0,0,0,0,0,0,0,0,0,0,0,0.492,0,0,0,0,0,0,0,0,0,0,0,0,0,0.459,0.46,0.462,0.464,0.464,0.464,0.464,0.464,0.464,0.464,0.463,0.463,0.462,0.46,0.459,0.458,0.458,0.457,0.457,0.456,0.456,0.457,0.457,0.459,0.461,0.463,0.465,0.466,0.468,0.469,0.47,0.47,0.469,0.468,0.467,0.465,0.465,0.464,0.463,0.462,0.461,0.46,0.459,0,0,0.457,0.456,0.456,0.455,0.454,0.453,0.453,0.452,0.452,0.451,0.451,0.451,0,0,0,0.448,0,0,0,0,0,0,0,0,0,0,0,0,0,0,0,0,0,0,0,0,0,0,0,0,0,0,0,0,0,0,0,0,0,0,0,0,0,0.448,0.447,0.447,0.446,0.446,0.446,0,0,0,0,0.447,0.449,0.452,0.454,0.458,0.461,0.465,0,0,0,0,0,0,0,0,0,0.475,0.476,0,0,0,0,0,0,0,0,0,0,0,0,0,0,0,0,0,0,0,0,0,0,0,0,0,0,0,0,0,0,0,0,0,0,0.493,0,0,0,0,0,0.501,0.502,0,0,0.506,0.507,0.508,0.508,0,0,0,0,0,0,0,0,0,0,0,0,0,0,0,0,0,0,0,0,0,0,0,0,0,0,0,0,0,0,0,0,0,0,0,0,0,0,0,0,0,0,0,0,0,0,0,0,0,0,0,0,0,0,0,0,0,0,0,0,0,0,0,0,0,0,0,0,0,0,0,0,0,0,0,0,0,0,0,0,0,0,0.428,0.428,0.427,0,0,0,0,0,0,0,0,0,0,0,0,0,0,0,0,0,0,0,0,0.432,0.432,0.43,0.43,0.428,0.428,0.427,0.426,0.426,0.426,0.426,0.426,0.427,0.427,0.428,0.429,0.428,0.428,0,0,0.425,0,0,0.423,0.423,0.422,0.422,0.422,0.422,0.421,0.421,0.42,0.419,0.419,0.418,0.418,0.417,0.417,0.417,0.417,0.417,0.417,0.416,0.417,0.416,0.417,0.416,0.416,0.416,0,0,0,0,0,0.411,0.41,0.409,0,0,0.405,0.403,0.401,0.4,0.399,0.398,0.397,0.397,0.396,0.395,0.395,0.394,0.394,0.393,0.393,0.393,0.393,0.392,0.392,0.392,0.391,0.391,0.39,0.389,0.388,0.387,0.386,0.385,0.385
0,0,0,0,0,0,0,0,0,0,0,0,0,0,0,0,0,0,0,0,0,0,0,0,0,0,0,0,0,0,0.35,0.35,0.35,0.35,0.35,0.35,0.351,0.351,0.352,0.353,0.354,0,0,0,0,0.369,0.371,0.372,0.374,0.375,0.376,0.377,0.377,0.378,0.378,0.378,0.378,0.378,0.378,0.378,0.377,0.377,0.376,0,0,0,0,0,0,0,0,0,0,0,0,0.388,0.389,0.389,0.389,0.39,0.39,0.39,0.39,0.39,0.39,0.389,0.389,0.389,0.389,0.389,0,0,0,0,0,0,0,0,0,0,0,0,0,0,0,0,0,0,0,0.437,0.437,0.436,0.436,0.435,0.434,0.433,0.433,0.432,0.431,0.431,0.431,0.43,0.43,0.43,0.43,0.429,0.428,0.428,0.428,0.427,0.426,0.426,0.426,0.426,0.427,0.427,0.428,0.428,0.428,0.429,0.429,0.429,0.429,0.429,0.428,0.427,0.427,0.427,0.427,0.427,0.427,0.427,0.429,0,0,0,0,0,0.442,0,0.438,0.437,0.437,0.436,0.436,0.436,0.435,0.435,0.436,0.437,0.438,0.439,0.44,0.442,0.443,0.444,0.445,0.444,0.444,0.444,0.443,0.442,0.441,0.441,0.442,0.442,0.444,0.444,0.445,0.446,0.447,0.447,0.446,0.446,0.446,0.446,0.445,0.445,0.445,0.445,0.445,0.446,0.446,0.447,0.448,0.45,0,0.455,0.457,0.459,0.46,0.46,0.461,0.462,0.462,0.462,0.463,0.463,0.462,0.462,0.463,0.463,0.463,0.463,0.463,0.463,0.463,0.463,0.463,0.463,0.464,0.464,0.465,0.465,0.465,0.466,0.467,0.467,0.467,0.468,0.468,0.469,0.469,0.469,0.47,0.47,0.47,0.471,0.471,0.472,0.472,0.473,0.473,0.473,0.473,0.472,0.472,0,0,0.469,0.47,0.471,0.472,0.473,0.475,0.477,0.478,0.475,0,0,0.46,0.447,0.447,0.45,0.451,0.451,0.449,0.447,0,0,0,0.438,0.429,0.426,0,0.42,0.417,0.415,0,0,0,0,0,0,0,0,0,0,0,0,0,0.442,0,0,0.444,0.444,0.446,0.446,0.448,0.449,0.451,0.457,0.46,0.46,0.46,0.461,0.461,0.462,0.462,0.463,0.463,0.463,0.462,0.462,0.461,0.46,0.459,0.458,0.457,0.457,0.456,0.456,0.456,0.457,0.457,0.458,0.461,0.462,0.464,0.465,0.466,0.467,0.467,0.467,0.466,0.465,0.464,0.463,0.462,0.461,0.461,0.459,0.458,0.457,0,0.456,0.455,0.455,0.454,0.453,0.453,0.453,0.452,0.451,0.451,0.451,0.45,0.45,0.45,0.449,0.448,0.447,0.447,0.446,0,0,0,0,0,0,0,0,0,0,0,0,0,0,0,0,0,0,0,0,0,0,0,0,0,0,0,0,0,0,0,0,0,0,0,0.447,0.447,0.446,0.446,0.445,0.445,0.445,0.445,0,0,0,0,0,0,0,0,0,0,0,0,0,0,0,0,0,0,0,0,0,0,0,0,0,0,0,0,0,0,0,0,0,0,0,0,0,0,0,0,0,0,0,0,0,0,0,0,0,0,0,0,0,0,0,0,0,0,0,0,0,0,0,0,0,0,0,0,0,0,0,0,0,0,0,0,0,0,0,0,0,0,0,0,0,0,0,0,0,0,0,0,0,0,0,0,0,0,0,0,0,0,0,0,0,0,0,0,0,0,0,0,0,0,0,0,0,0,0,0,0,0,0,0,0,0,0,0,0,0,0,0,0,0,0,0,0,0,0,0,0,0,0,0,0,0,0,0,0.429,0.428,0.428,0.428,0,0,0,0,0,0,0,0,0,0,0,0,0,0,0,0,0,0,0,0,0,0,0,0,0.427,0.426,0.424,0.424,0.423,0.423,0.422,0.422,0.422,0.423,0.423,0.424,0.425,0.426,0.425,0,0,0.422,0.422,0.421,0.42,0.42,0.42,0.42,0.42,0.419,0.419,0.418,0.417,0.417,0.416,0.416,0.416,0.415,0.415,0.415,0.415,0.414,0.414,0.413,0.414,0.413,0.413,0.413,0,0,0,0,0,0,0.409,0.409,0.408,0,0.405,0,0,0.401,0.4,0.399,0.398,0.397,0.397,0.396,0.396,0.395,0.395,0.394,0.393,0.393,0.393,0.392,0.392,0.391,0.391,0.39,0.389,0.389,0.388,0.387,0.385,0.384,0.383,0.382,0.381
0,0,0,0,0,0,0,0,0,0,0,0,0,0,0,0,0,0,0,0,0,0,0,0,0,0,0,0,0,0.348,0.348,0.348,0.349,0.349,0.349,0.349,0.35,0.35,0.35,0.351,0.352,0.354,0,0,0,0.366,0.368,0.37,0.372,0.373,0.374,0.375,0.376,0.377,0.377,0.377,0.378,0.378,0.378,0.378,0.377,0.376,0.376,0.376,0.376,0,0.374,0,0,0,0,0,0,0,0.384,0.387,0.387,0.388,0.389,0.39,0.39,0.39,0.39,0.39,0.39,0.389,0.389,0.389,0.389,0,0,0,0,0,0,0,0,0,0,0,0,0,0,0,0,0,0,0,0,0.437,0.437,0.437,0.436,0.435,0.434,0.433,0.432,0.431,0.43,0.429,0.428,0.427,0.427,0.427,0.427,0.427,0.426,0.425,0.425,0.424,0.423,0.423,0.423,0,0.423,0.424,0.425,0.425,0.426,0.427,0.427,0.427,0.427,0.427,0.427,0.426,0.426,0.425,0.426,0.426,0.426,0.426,0.428,0.429,0.433,0,0,0,0,0.44,0.438,0.436,0.436,0.435,0.434,0.434,0.434,0.434,0.434,0.435,0.436,0.437,0.439,0.44,0.441,0.442,0.443,0.443,0.442,0.442,0.44,0.44,0,0.439,0.439,0.44,0.442,0.443,0.444,0.445,0.446,0.447,0.446,0.446,0.446,0.445,0.445,0.445,0.445,0.445,0.444,0.445,0.445,0.446,0.447,0.448,0.45,0.451,0.453,0,0.456,0.457,0.457,0.458,0.458,0.458,0.458,0.459,0.458,0.458,0.459,0.459,0.459,0.459,0.459,0.46,0.46,0.46,0.46,0.46,0.46,0.461,0.461,0.462,0.462,0.463,0.463,0.464,0.464,0.465,0.465,0.465,0.466,0.466,0.466,0.466,0.466,0.467,0.467,0.468,0.468,0.469,0.469,0.468,0.468,0.468,0.467,0.466,0.466,0.466,0.466,0.467,0.468,0,0.471,0.472,0,0,0,0.445,0.444,0.443,0.443,0.444,0.444,0.444,0.444,0,0.442,0.44,0.437,0.434,0.429,0.425,0.423,0.42,0.417,0,0,0.412,0,0,0,0,0,0,0,0,0,0,0.443,0.443,0.444,0.444,0.445,0.446,0.447,0.448,0.449,0.45,0.453,0.455,0.456,0.457,0.458,0.459,0.46,0.46,0.461,0.462,0.462,0.463,0.462,0.462,0.461,0.46,0.459,0.459,0.458,0.457,0.456,0.456,0.455,0.455,0.456,0.457,0.458,0.46,0.461,0.462,0.463,0.465,0.465,0.465,0.465,0.464,0.463,0.462,0.461,0.461,0.46,0.458,0.457,0.456,0,0.454,0.453,0.453,0.452,0.452,0.452,0.451,0.451,0.451,0.451,0.45,0.449,0.449,0.448,0.448,0.446,0.445,0.444,0.443,0.443,0,0,0,0,0,0,0,0,0,0,0,0,0,0,0,0,0,0,0,0,0,0,0,0,0,0,0,0,0,0,0,0,0,0.447,0.447,0.446,0.446,0.445,0.445,0.444,0.444,0.444,0.444,0.444,0.444,0,0,0,0,0,0,0,0,0,0,0,0,0,0,0,0,0,0,0,0,0,0,0,0,0,0,0,0,0,0,0,0,0,0,0,0,0,0,0,0,0,0,0,0,0,0,0,0,0,0,0,0,0,0,0,0,0,0,0,0,0,0,0,0,0,0,0,0,0,0,0,0,0,0,0,0,0,0,0,0,0,0,0,0,0,0,0,0,0,0,0,0,0,0,0,0,0,0,0,0,0,0,0,0,0,0,0,0,0,0,0,0,0,0,0,0,0,0,0,0,0,0,0,0,0,0,0,0,0,0,0,0,0,0,0,0,0,0,0,0,0,0,0.429,0.429,0.429,0.428,0.428,0.428,0.428,0,0,0,0,0,0,0,0,0,0,0,0,0,0,0,0,0,0,0,0,0,0,0,0,0,0.422,0,0.42,0.42,0.42,0.419,0,0,0,0,0.419,0.42,0,0.42,0,0,0.419,0.419,0.418,0.418,0.418,0.417,0.417,0.417,0.417,0.416,0.416,0.415,0.415,0.414,0.414,0.413,0.413,0.413,0.413,0.412,0.412,0.411,0.411,0.411,0.41,0.41,0.409,0.409,0,0,0,0.407,0.407,0.407,0.407,0.406,0.405,0,0,0.402,0.4,0.4,0.398,0.398,0.397,0.396,0.396,0.395,0.395,0.394,0.393,0.393,0.392,0.392,0.392,0.391,0.39,0.389,0.389,0.388,0.387,0.385,0.384,0.383,0.382,0.381,0,0
0,0,0,0,0,0,0,0,0,0,0,0,0,0,0,0,0,0,0,0,0,0,0,0,0,0,0,0,0,0.348,0.348,0.348,0.348,0.348,0.348,0.348,0.349,0.349,0.349,0.35,0.351,0.353,0.355,0.357,0.36,0.363,0.365,0.367,0.369,0.37,0.372,0.373,0.374,0.375,0.376,0.376,0.377,0.377,0.377,0.377,0.377,0.377,0.376,0.376,0.375,0.375,0.375,0.374,0.374,0.375,0.376,0,0,0,0.382,0.384,0.386,0.388,0.389,0.39,0.39,0.39,0,0,0,0,0,0,0,0,0,0,0,0,0,0,0,0,0,0,0,0,0,0,0,0,0,0,0,0,0.437,0.437,0.436,0.434,0.433,0.43,0.424,0.428,0.428,0.426,0.424,0.423,0.423,0.423,0.423,0.423,0,0.422,0.421,0.42,0.419,0.42,0,0,0.421,0.421,0.422,0.423,0.424,0.425,0.425,0.425,0.426,0.425,0.425,0.425,0.425,0.425,0.425,0.425,0.425,0.425,0.427,0,0,0,0,0,0,0,0,0.436,0.435,0.433,0.433,0.432,0.432,0.432,0.433,0.434,0.434,0.435,0.437,0.438,0.439,0.44,0.441,0.441,0.44,0.439,0.438,0.437,0.436,0.437,0.437,0.438,0.44,0.441,0.442,0.444,0.445,0.446,0.446,0.446,0.445,0.445,0.445,0.444,0.444,0.444,0.444,0.444,0.445,0.445,0.446,0.447,0.448,0.449,0.451,0.452,0.453,0.454,0.454,0.455,0.455,0.456,0.455,0.456,0.455,0.455,0.456,0.456,0.456,0.456,0.456,0.456,0.457,0.457,0.457,0.457,0.458,0.458,0.459,0.459,0.459,0.46,0.46,0.461,0.461,0.461,0.461,0.462,0.463,0.463,0.463,0.463,0.463,0.464,0.464,0.465,0.465,0.465,0.465,0.465,0.465,0.464,0.464,0.463,0.462,0.462,0.462,0.463,0.465,0.466,0.465,0,0,0,0.437,0.435,0.437,0.439,0.439,0.44,0.44,0,0.44,0.439,0.438,0.435,0.433,0.43,0.428,0.424,0.422,0.42,0.417,0.415,0.414,0.413,0.411,0,0,0,0,0,0,0,0,0,0.443,0.444,0.444,0.445,0.446,0.446,0.448,0.448,0.45,0.451,0.452,0.453,0.454,0.455,0.456,0.457,0.459,0.459,0.46,0.461,0.462,0.462,0.462,0.462,0.461,0.461,0.46,0.459,0.458,0.457,0.456,0.455,0.454,0.454,0.454,0.455,0.456,0.457,0.459,0.46,0.461,0.462,0.463,0.463,0.463,0.462,0.462,0.461,0.46,0.46,0.459,0.457,0.456,0.454,0,0,0,0,0.45,0.451,0.45,0.45,0.449,0.449,0.449,0.448,0.448,0.448,0.447,0.446,0.445,0.443,0.441,0.44,0.439,0,0,0,0,0,0,0,0,0,0,0,0,0,0,0,0,0,0,0,0,0,0,0,0,0,0,0,0,0,0,0,0,0,0.447,0.446,0.446,0.445,0.445,0.444,0.444,0.444,0.444,0.444,0.443,0.443,0.444,0,0,0,0,0,0,0,0,0,0,0,0,0,0,0,0,0,0,0,0,0,0,0,0,0,0,0,0,0,0,0,0,0,0,0,0,0,0,0,0,0,0,0,0,0,0,0,0,0,0,0,0,0,0,0,0,0,0,0,0,0,0,0,0,0,0,0,0,0,0,0,0,0,0,0,0,0,0,0,0,0,0,0,0,0,0,0,0,0,0,0,0,0,0,0,0,0,0,0,0,0,0,0,0,0,0,0,0,0,0,0,0,0,0,0,0,0,0,0,0,0,0,0,0,0,0,0,0,0,0,0,0,0,0,0,0,0,0,0,0.429,0.43,0.429,0.429,0.429,0.428,0.428,0.428,0.428,0,0,0,0,0,0,0,0,0,0,0,0,0,0,0,0,0,0,0,0,0,0,0,0.419,0.419,0.418,0.417,0.417,0.417,0.416,0.416,0.415,0.415,0,0,0,0,0,0,0,0,0,0.415,0.416,0.416,0.416,0.415,0.415,0.415,0.415,0.415,0.414,0.414,0.413,0.413,0.412,0.412,0.412,0.411,0.411,0.411,0.41,0.409,0.408,0.408,0.408,0.407,0.406,0.405,0.405,0.405,0,0.405,0.405,0.404,0.404,0.404,0.404,0.403,0.402,0.401,0.399,0.399,0.398,0.397,0.396,0.395,0.395,0.395,0.394,0.393,0.393,0.392,0.391,0.391,0.391,0.39,0.389,0.388,0.387,0.386,0.385,0.383,0.382,0.38,0.379,0,0.377,0.376
0,0,0,0,0,0,0,0,0,0,0,0,0,0,0,0,0,0,0,0,0,0,0,0,0,0,0,0,0.347,0.347,0.347,0.347,0.347,0.347,0.347,0.347,0.348,0.348,0.349,0.349,0.35,0.352,0.353,0.355,0.357,0.36,0,0.364,0.366,0.367,0.369,0.37,0.372,0.372,0.373,0.374,0.375,0.375,0.375,0.375,0.375,0.375,0.375,0.375,0.375,0.374,0.374,0.373,0,0.374,0,0,0.377,0.379,0.381,0.383,0.385,0.387,0.388,0.39,0,0,0,0,0,0,0,0,0,0,0,0,0,0,0,0,0,0,0,0,0,0,0,0,0,0,0,0,0,0,0,0,0,0,0,0.417,0.417,0.417,0.418,0,0.418,0.419,0.419,0.419,0.419,0.419,0,0.418,0,0.417,0.416,0.416,0.417,0.417,0.418,0.419,0.42,0.421,0.422,0.423,0.424,0.424,0.424,0.424,0.424,0.424,0.423,0.424,0.424,0.424,0.424,0.424,0.426,0.427,0,0.432,0.435,0,0,0,0,0.434,0.433,0.432,0.431,0.431,0.431,0.431,0.431,0.432,0.433,0.434,0.435,0.436,0.437,0.438,0.439,0.438,0.438,0.437,0.436,0.435,0.434,0.434,0.434,0.435,0,0.438,0.44,0.442,0.444,0.445,0.445,0.445,0.445,0.445,0.444,0.444,0.444,0.444,0.444,0.444,0.445,0.445,0.445,0.446,0.447,0.448,0.449,0.45,0.451,0.452,0.452,0.453,0.453,0.453,0.453,0.453,0.453,0.453,0.453,0.453,0.453,0.453,0.453,0.453,0.454,0.454,0.454,0.455,0.455,0.456,0.456,0.456,0.457,0.457,0.457,0.458,0.458,0.458,0.459,0.459,0.46,0.46,0.46,0.46,0.46,0.461,0.461,0.461,0.462,0.463,0.463,0.462,0.462,0.462,0.461,0.461,0.46,0.46,0.461,0.461,0.462,0.462,0.458,0,0.447,0,0.433,0.433,0.434,0.435,0.436,0.437,0,0.436,0.436,0.435,0.434,0.432,0.43,0.428,0.425,0.423,0.421,0.419,0.416,0.415,0.413,0.412,0.411,0,0,0,0,0,0,0,0,0.444,0.444,0.445,0,0.446,0.447,0.448,0.449,0.449,0.45,0.451,0.452,0.453,0.454,0.455,0.457,0.458,0.459,0.46,0.46,0.461,0.462,0.462,0.462,0.462,0.461,0.461,0.46,0.46,0.459,0.457,0.456,0.455,0.453,0.453,0.453,0.453,0.454,0,0.457,0.459,0,0,0,0,0,0.461,0.461,0.46,0.46,0.459,0,0,0,0,0,0,0,0.449,0,0.449,0.449,0.448,0.448,0.447,0.446,0.445,0.444,0.444,0.443,0.442,0.441,0.44,0.439,0.438,0.437,0.435,0,0,0,0,0,0,0,0,0,0,0,0,0,0,0,0,0,0,0,0,0,0,0,0,0,0,0,0,0,0,0,0,0,0.446,0.445,0.444,0.444,0.444,0.444,0.443,0.443,0.443,0.443,0.442,0.442,0.443,0.443,0,0,0,0,0,0,0,0,0,0,0,0,0,0,0,0,0,0,0,0,0,0,0,0,0,0,0,0,0,0,0,0,0,0,0,0,0,0,0,0,0,0,0,0,0,0,0,0,0,0,0,0,0,0,0,0,0,0,0,0,0,0,0,0,0,0,0,0,0,0,0,0,0,0,0,0,0,0,0,0,0,0,0,0,0,0,0,0,0,0,0,0,0,0,0,0,0,0,0,0,0,0,0,0,0,0,0,0,0,0,0,0,0,0,0,0,0,0,0,0,0,0,0,0,0,0,0,0,0,0,0,0,0,0,0,0,0.43,0.43,0.43,0.429,0.429,0.429,0.428,0.428,0.428,0.428,0.427,0,0,0,0,0,0,0,0,0,0,0,0,0,0,0,0,0,0,0,0,0,0,0.415,0.414,0.414,0.414,0.414,0.414,0.414,0.413,0.413,0.413,0.412,0.412,0,0,0,0,0,0,0.412,0.413,0,0.413,0.413,0.413,0.413,0.413,0.413,0.413,0.412,0.412,0.412,0.412,0.411,0.411,0.41,0.41,0.409,0.409,0.408,0.407,0.407,0.406,0,0.405,0.404,0.404,0.403,0.403,0.403,0.403,0.403,0.402,0.402,0.402,0.402,0.401,0.401,0.4,0.398,0.398,0.397,0.397,0.396,0.395,0.395,0.394,0.393,0.393,0.392,0.392,0.391,0.39,0.39,0.389,0.388,0.386,0.385,0.384,0.382,0.381,0,0,0,0.376,0.375,0.374
0,0,0,0,0,0,0,0,0,0,0,0,0,0,0,0,0,0,0,0,0,0,0,0,0,0,0,0.346,0.346,0.346,0.346,0.346,0.346,0.346,0.346,0.347,0.347,0.347,0.348,0.349,0.349,0.35,0.352,0.354,0.355,0.357,0.359,0.361,0.363,0.364,0.366,0.367,0.369,0.37,0.371,0.372,0.373,0.373,0.373,0.373,0.373,0.374,0.374,0.373,0.373,0.373,0.373,0.372,0.372,0,0.373,0.374,0,0.376,0.377,0,0,0,0,0,0,0,0,0,0,0,0,0,0,0,0,0,0,0,0,0,0,0,0,0,0,0,0,0,0,0,0,0,0,0,0.399,0.399,0.4,0.401,0.401,0.402,0.404,0.413,0.413,0.413,0,0.415,0.415,0.415,0.415,0.415,0,0.415,0.414,0.414,0.413,0.414,0.414,0.415,0.416,0.417,0.418,0.419,0.42,0.421,0.422,0.422,0.423,0.423,0.423,0.422,0.422,0.422,0.423,0.423,0.423,0.423,0.425,0,0,0,0.432,0,0,0,0,0,0.431,0.43,0.43,0.43,0.429,0.429,0.43,0.431,0.432,0.433,0.434,0.435,0.435,0.436,0.437,0.436,0.436,0.435,0.434,0.432,0.431,0.431,0.431,0.432,0.433,0.434,0.436,0.438,0.44,0.442,0.443,0.444,0.444,0.444,0.444,0.444,0.444,0.444,0.444,0.444,0.444,0.445,0.445,0.445,0.446,0.447,0.448,0.448,0.449,0.45,0.451,0.451,0.451,0.451,0.451,0.451,0.451,0.451,0.45,0.45,0.45,0.45,0.45,0.451,0.451,0.451,0.452,0.452,0.453,0.453,0.453,0.453,0.453,0.454,0.454,0.455,0.455,0.455,0.456,0.456,0.457,0.457,0.457,0.457,0.458,0.458,0.458,0.459,0.46,0.46,0.46,0.46,0.46,0.46,0.46,0.46,0.46,0.46,0.459,0.46,0.46,0.457,0,0,0,0,0.429,0.43,0.431,0.432,0.433,0.433,0.433,0.433,0.432,0.431,0.43,0.429,0.428,0.426,0.424,0.423,0.421,0.419,0.416,0.414,0.412,0.411,0.41,0,0,0,0,0,0,0,0.444,0.445,0.445,0.446,0.446,0.447,0.447,0,0.449,0.45,0.451,0.452,0.453,0.453,0.455,0.456,0.457,0.458,0.459,0.46,0.46,0.461,0.461,0.462,0.462,0.461,0.461,0.461,0.46,0.46,0.459,0.457,0.456,0.454,0.453,0.452,0.451,0.451,0.452,0.453,0.455,0.456,0.457,0.459,0.46,0.461,0.461,0.46,0.46,0.459,0.459,0.458,0.456,0.454,0.452,0.45,0,0.448,0.448,0.448,0.447,0.448,0,0,0.445,0.444,0.443,0.442,0.442,0.441,0.441,0.44,0.439,0.438,0.437,0,0.435,0.433,0.431,0,0,0,0,0,0,0,0,0,0,0,0,0,0,0,0,0,0,0,0,0,0,0,0,0,0,0,0,0,0,0,0,0.445,0.444,0.444,0.443,0.443,0.443,0.443,0.443,0.442,0.442,0.442,0.442,0.442,0.442,0,0,0,0,0,0,0,0,0,0,0,0,0,0,0,0,0,0,0,0,0,0,0,0,0,0,0,0,0,0,0,0,0,0,0,0,0,0,0,0,0,0,0,0,0,0,0,0,0,0,0,0,0,0,0,0,0,0,0,0,0,0,0,0,0,0,0,0,0,0,0,0,0,0,0,0,0,0,0,0,0,0,0,0,0,0,0,0,0,0,0,0,0,0,0,0,0,0,0,0,0,0,0,0,0,0,0,0,0,0,0,0,0,0,0,0,0,0,0,0,0,0,0,0,0,0,0,0,0,0,0,0,0,0,0,0,0.429,0.429,0.429,0.429,0.429,0.429,0.428,0.428,0.428,0.427,0.427,0,0,0,0,0,0,0,0,0,0,0,0,0,0,0,0,0,0,0,0,0,0,0.411,0.411,0.411,0.411,0.411,0.411,0.411,0.411,0.41,0.41,0.41,0.409,0.409,0,0,0,0,0,0,0.411,0.412,0.412,0.412,0.412,0.412,0.412,0.412,0.412,0.411,0.411,0.411,0.411,0.41,0.41,0.409,0.408,0.408,0.407,0.406,0.406,0.405,0.404,0.404,0.403,0.403,0.402,0.402,0.402,0.402,0.401,0.401,0.401,0.401,0.401,0,0,0.399,0.398,0.398,0.397,0.397,0.396,0.395,0.395,0.394,0.394,0.393,0.392,0.392,0.391,0.39,0.389,0.388,0.387,0.385,0.383,0.382,0.381,0.379,0.378,0,0.375,0.374,0.373,0.373,0.372
0,0,0,0,0,0,0,0,0,0,0,0,0,0,0,0,0,0,0,0,0,0,0,0,0,0,0,0,0,0.345,0.345,0.345,0.345,0.346,0.346,0.346,0.346,0.347,0.348,0.348,0.349,0.35,0.351,0.353,0.354,0.356,0.357,0.358,0.36,0.361,0.363,0.364,0.365,0.366,0.368,0.369,0.37,0.37,0.371,0.371,0.372,0.372,0.372,0.372,0.372,0.372,0.372,0.371,0.371,0.371,0.372,0.372,0.373,0.374,0.374,0,0,0,0,0,0,0,0,0,0,0,0,0,0,0,0,0,0,0,0,0,0,0,0,0,0,0,0,0,0,0,0,0,0,0.398,0.399,0.399,0.399,0.4,0.4,0.401,0.402,0.404,0.405,0.408,0.41,0.411,0.411,0.412,0.412,0.412,0.412,0.412,0,0.411,0.411,0.411,0.412,0.412,0.413,0.414,0.415,0.416,0.417,0.419,0.42,0.42,0.421,0.421,0.421,0.421,0.421,0.421,0.421,0.421,0.422,0.422,0.424,0.425,0,0,0.429,0.431,0.432,0,0,0,0.431,0.429,0.429,0.429,0.429,0.429,0.429,0.43,0.431,0.431,0.432,0.433,0.434,0.434,0.435,0.434,0.434,0.433,0.432,0.43,0.429,0.429,0.428,0.429,0.429,0,0.433,0.434,0.436,0.438,0.438,0.44,0.44,0.44,0.441,0.442,0.442,0.442,0.443,0.444,0.444,0.444,0.444,0.445,0.446,0.446,0.447,0.447,0.448,0.448,0.448,0.449,0.449,0.449,0.449,0.448,0.448,0.448,0.448,0.448,0.448,0.448,0.448,0.448,0.448,0.449,0.449,0.45,0.45,0.45,0.45,0.451,0.451,0.451,0.451,0.452,0.452,0.452,0.453,0.453,0.453,0.454,0.454,0.454,0.455,0.456,0.456,0.457,0.457,0.458,0.458,0.458,0.459,0.459,0.459,0.459,0.458,0.459,0.459,0,0,0,0,0,0.424,0.425,0.426,0.427,0.428,0.429,0.429,0.429,0.43,0.43,0.429,0.429,0.428,0.427,0.426,0.425,0.424,0.422,0.42,0.418,0.415,0.414,0.412,0.41,0.409,0,0,0,0,0,0,0,0.445,0,0.446,0.446,0,0.448,0.449,0.45,0.451,0.451,0.452,0.453,0.454,0.454,0.455,0.456,0.457,0.458,0.459,0.459,0.46,0.46,0.461,0.461,0.461,0.461,0.461,0.46,0.46,0.459,0.458,0.457,0.455,0.453,0.452,0.45,0.449,0.449,0.449,0.45,0.451,0.453,0.454,0.456,0.457,0.459,0.459,0.459,0.459,0.458,0.458,0.457,0.455,0.453,0.451,0,0.447,0.446,0.446,0.444,0.444,0.444,0,0,0,0,0.438,0.437,0.437,0.437,0.436,0.435,0.435,0.434,0.433,0.432,0,0.43,0.428,0,0,0,0,0,0,0,0,0,0,0,0,0,0,0,0,0,0,0,0,0,0,0,0,0,0,0,0,0,0,0,0,0,0.443,0.443,0.442,0.442,0.442,0.442,0.442,0.442,0.442,0.442,0.442,0.441,0.441,0.441,0,0,0,0,0,0,0,0,0,0,0,0,0,0,0,0,0,0,0,0,0,0,0,0,0,0,0,0,0,0,0,0,0,0,0,0,0,0,0,0,0,0,0,0,0,0,0,0,0,0,0,0,0,0,0,0,0,0,0,0,0,0,0,0,0,0,0,0,0,0,0,0,0,0,0,0,0,0,0,0,0,0,0,0,0,0,0,0,0,0,0,0,0,0,0,0,0,0,0,0,0,0,0,0,0,0,0,0,0,0,0,0,0,0,0,0,0,0,0,0,0,0,0,0,0,0,0,0,0,0,0,0,0,0,0.429,0.429,0.429,0.429,0.429,0.429,0.429,0.428,0.428,0,0,0,0,0,0,0,0,0,0,0,0,0,0,0,0,0,0,0,0,0,0,0,0,0,0.409,0.409,0.409,0.409,0.409,0.409,0.409,0.408,0.408,0.408,0.407,0.407,0.406,0.406,0.406,0.406,0,0,0,0.41,0.411,0.411,0.411,0.411,0.411,0.411,0.411,0.411,0.41,0.41,0.41,0.409,0.409,0.408,0.407,0.407,0.406,0.406,0.405,0.404,0.404,0.403,0.402,0.402,0.402,0.401,0.401,0.401,0.401,0.401,0.4,0,0.4,0.4,0.399,0,0,0.397,0.397,0.396,0.396,0.395,0.395,0.394,0.393,0.393,0.392,0.391,0.39,0.389,0.388,0.386,0.385,0.383,0.381,0.38,0,0,0.376,0.375,0.374,0.373,0.372,0.371,0.371,0.371
0,0,0,0,0,0,0,0,0,0,0,0,0,0,0,0,0,0,0,0,0,0,0,0,0,0,0,0,0,0,0.345,0.344,0.345,0.345,0.345,0.345,0.346,0.346,0.347,0.348,0.349,0.35,0.351,0.352,0.353,0.354,0.355,0.356,0.357,0.358,0.36,0.361,0.362,0.363,0.364,0.365,0.366,0.367,0.368,0.369,0.37,0.37,0.37,0.37,0.37,0.37,0.37,0.37,0.37,0,0.371,0.371,0.371,0,0.371,0,0,0,0,0,0,0,0,0,0,0,0,0,0,0,0,0,0,0,0,0,0,0,0,0,0,0,0,0,0,0,0.397,0.397,0.397,0.397,0.398,0.398,0.399,0.399,0.4,0.4,0.401,0.403,0.404,0.406,0.407,0.408,0.408,0.409,0.409,0.41,0.41,0.41,0.409,0.409,0.409,0.409,0.41,0.41,0.411,0.412,0.413,0.414,0.415,0.416,0.417,0.418,0.419,0.419,0.419,0.419,0.419,0.42,0.42,0.42,0.42,0.421,0.422,0.423,0.425,0.426,0.428,0.429,0,0,0.431,0.43,0.429,0.428,0.428,0.428,0.428,0.429,0.429,0.429,0.43,0.431,0.431,0.432,0.432,0.432,0.432,0.432,0.431,0.431,0.429,0.428,0.427,0.426,0.426,0.427,0.427,0,0.429,0.43,0.432,0.433,0.434,0.435,0.436,0.437,0.437,0.438,0.439,0.44,0.441,0.442,0.443,0.443,0.443,0.444,0.444,0.445,0.445,0.445,0.446,0.446,0.447,0.447,0.447,0.447,0.446,0.446,0.446,0.446,0.445,0.445,0.445,0.445,0.445,0.446,0.446,0.446,0.446,0.447,0.447,0.447,0.448,0.448,0.448,0.448,0.449,0.449,0.449,0.45,0.45,0.45,0.451,0.451,0.451,0.452,0.452,0.453,0.453,0.454,0.455,0.456,0.456,0.457,0.457,0.457,0.457,0.457,0.457,0.458,0,0,0,0,0,0,0.418,0.421,0.423,0.423,0.424,0.425,0.426,0.426,0.426,0.427,0.427,0.426,0.426,0.425,0.425,0.424,0.423,0.422,0.42,0.417,0.415,0.413,0,0.41,0.408,0.406,0,0,0,0,0,0,0.445,0.446,0,0.447,0.448,0.448,0.45,0.451,0.452,0.452,0.453,0.454,0.454,0.455,0.456,0.456,0.457,0.458,0.458,0.458,0.459,0.459,0.46,0.46,0.46,0.46,0.46,0.46,0.46,0.459,0.457,0.456,0.454,0.452,0.45,0.448,0.447,0.446,0.446,0.446,0.447,0.448,0.45,0.452,0.453,0.455,0.456,0.456,0.456,0.456,0.455,0.454,0.452,0.45,0.448,0,0.444,0,0.442,0.44,0.439,0,0,0,0,0,0.432,0.432,0.432,0.432,0,0,0.431,0.431,0.43,0.429,0.429,0.428,0.426,0.425,0,0,0,0,0,0,0,0,0,0,0,0,0,0,0,0,0,0,0,0,0,0,0,0,0,0,0,0,0,0,0,0.441,0.441,0.441,0.441,0.442,0.442,0.442,0.442,0.442,0.441,0.441,0.441,0.441,0.44,0.44,0,0,0,0,0,0,0,0,0,0,0,0,0,0,0,0,0,0,0,0,0,0,0,0,0,0,0,0,0,0,0,0,0,0,0,0,0,0,0,0,0,0,0,0,0,0,0,0,0,0,0,0,0,0,0,0,0,0,0,0,0,0,0,0,0,0,0,0,0,0,0,0,0,0,0,0,0,0,0,0,0,0,0,0,0,0,0,0,0,0,0,0,0,0,0,0,0,0,0,0,0,0,0,0,0,0,0,0,0,0,0,0,0,0,0,0,0,0,0,0,0,0,0,0,0,0,0,0,0,0,0,0,0,0,0.429,0,0.429,0.429,0.429,0.429,0,0,0,0,0,0,0,0,0,0,0,0,0,0,0,0,0,0,0,0,0,0,0,0,0,0,0,0.409,0.409,0.409,0.409,0.409,0.409,0.409,0.408,0.407,0.407,0.407,0.406,0.406,0.406,0.405,0.405,0.405,0,0,0,0.408,0.409,0.41,0.41,0.41,0.41,0.41,0.41,0.409,0.409,0.409,0.408,0.408,0.407,0.407,0.406,0.405,0.405,0.404,0.403,0.403,0.402,0.402,0.401,0.401,0.4,0.4,0.4,0.4,0.4,0.399,0.399,0.399,0.398,0.398,0.398,0.397,0.397,0.396,0.396,0.395,0.395,0.394,0.393,0.393,0.391,0.391,0.39,0.389,0.387,0.386,0.385,0.383,0.381,0,0,0,0,0.375,0.373,0.373,0.372,0.371,0.371,0.37,0.37,0.37
